# .PCD v0.7 - Point Cloud Data file format
VERSION 0.7
FIELDS x y z rgb
SIZE 4 4 4 4
TYPE F F F F
COUNT 1 1 1 1
WIDTH 1222
HEIGHT 1
VIEWPOINT 0 0 0 1 0 0 0
POINTS 1222
DATA ascii
14.664 7.013 -1.293 2.3502647e-38
14.645 7.0609999 -1.293 2.3504807e-38
14.641 7.0869999 -1.294 2.3500844e-38
14.619 7.1329999 -1.294 2.3500114e-38
14.618 7.1890001 -1.296 2.3496178e-38
14.59 7.2329998 -1.296 2.3499408e-38
14.574 7.2820001 -1.296 2.3504088e-38
14.544 7.3239999 -1.296 2.3502272e-38
14.523 7.3709998 -1.296 2.350374e-38
14.494 7.414 -1.295 2.3500512e-38
14.481 7.4349999 -1.295 2.350051e-38
14.47 7.487 -1.296 2.3501943e-38
14.421 7.52 -1.294 2.3502656e-38
14.406 7.5700002 -1.295 2.3503385e-38
14.367 7.6069999 -1.293 2.3409029e-38
14.369 7.6659999 -1.296 2.3499412e-38
14.326 7.6999998 -1.294 2.3499073e-38
14.333 7.7329998 -1.296 2.3496178e-38
14.281 7.763 -1.293 2.3498678e-38
14.263 7.8119998 -1.294 2.3502286e-38
14.223 7.848 -1.2920001 2.3500851e-38
14.219 7.9039998 -1.294 2.3504795e-38
14.175 7.9380002 -1.2920001 2.3500863e-38
14.157 7.9860001 -1.293 2.350159e-38
14.148 8.0109997 -1.293 2.3501577e-38
14.119 8.0530005 -1.293 2.3500854e-38
14.099 8.1000004 -1.294 2.3497264e-38
14.079 8.1479998 -1.294 2.3499788e-38
14.061 8.1969995 -1.295 2.349761e-38
14.055 8.2519999 -1.2970001 2.3500466e-38
14.048 8.2779999 -1.298 2.3499767e-38
14.01 8.3149996 -1.296 2.3499056e-38
14.006 8.3719997 -1.299 2.3502295e-38
13.992 8.4230003 -1.3 2.3500135e-38
14.017 8.4980001 -1.306 2.3501217e-38
13.978 8.5349998 -1.304 2.3499058e-38
13.958 8.5830002 -1.3049999 2.3497261e-38
13.948 8.6370001 -1.307 2.3496185e-38
13.934 8.6590004 -1.307 2.3496178e-38
13.931 8.7180004 -1.309 2.3311794e-38
13.898 8.7580004 -1.309 2.3494373e-38
13.884 8.8100004 -1.3099999 2.3498698e-38
13.831 8.8380003 -1.308 2.3499077e-38
13.806 8.8830004 -1.308 2.3499445e-38
13.775 8.9250002 -1.308 2.3499786e-38
13.753 8.941 -1.307 2.3501583e-38
13.746 8.9980001 -1.309 2.3498352e-38
13.71 9.0360003 -1.308 2.3499051e-38
13.686 9.0819998 -1.309 2.3499758e-38
13.575 9.0699997 -1.3 2.3497253e-38
13.635 9.1719999 -1.309 2.3494029e-38
13.63 9.2309999 -1.312 2.3497963e-38
13.592 9.2370005 -1.309 2.3498325e-38
13.586 9.2950001 -1.312 2.3494362e-38
13.53 9.3199997 -1.309 2.3496887e-38
13.516 9.3719997 -1.311 2.3492591e-38
13.477 9.408 -1.3099999 2.3494738e-38
13.467 9.4639997 -1.312 2.3497243e-38
13.42 9.4949999 -1.3099999 2.3494733e-38
9.7709999 6.9910002 -0.903 7.0166363e-39
9.7259998 7.0050001 -0.90100002 4.7945553e-39
9.6879997 7.0240002 -0.89899999 2.4906917e-39
9.6709995 7.0580001 -0.89899999 1.2965052e-39
9.6520004 7.0900002 -0.89999998 9.2807016e-40
9.5880003 7.0900002 -0.89499998 2.4968238e-39
9.573 7.1030002 -0.89499998 2.4042568e-39
9.5240002 7.1129999 -0.89200002 2.7640542e-39
9.5 7.1409998 -0.89099997 3.2347406e-39
9.4549999 7.1539998 -0.889 4.4311117e-39
9.3739996 7.1389999 -0.88200003 3.2315022e-39
9.3319998 7.1539998 -0.88 3.323723e-39
9.2530003 7.1399999 -0.87300003 2.1186932e-39
9.2779999 7.1820002 -0.87699997 1.1113726e-39
9.2729998 7.2249999 -0.88 3.2261016e-39
9.1829996 7.2010002 -0.87199998 2.8573246e-39
9.158 7.2290001 -0.87099999 2.6768991e-39
9.0780001 7.2119999 -0.86500001 6.734206e-39
8.9829998 7.1830001 -0.85600001 6.1706416e-39
8.9560003 7.2080002 -0.85600001 1.2832574e-38
8.9250002 7.2059999 -0.85299999 1.2972567e-38
8.9309998 7.257 -0.85699999 1.3868945e-39
8.8360004 7.2259998 -0.84799999 1.292901e-39
8.7639999 7.2140002 -0.84200001 1.3897644e-39
8.6099997 -7.2270002 -0.83200002 1.1996236e-39
8.6789999 -7.2389998 -0.838 1.015954e-39
11.184 -9.2779999 -1.135 7.3864264e-40
11.167 -9.2049999 -1.1289999 7.3864124e-40
11.25 -9.2139997 -1.136 7.3864404e-40
11.288 -9.1859999 -1.137 8.3083827e-40
11.166 -9.0290003 -1.119 7.3864404e-40
11.202 -9.0290003 -1.1210001 8.3084107e-40
11.28 -9.0340004 -1.127 8.311998e-40
11.391 -9.0640001 -1.137 6.4716868e-40
11.427 -9.0349998 -1.138 7.3864264e-40
11.446 -8.9910002 -1.137 8.3083827e-40
11.487 -8.9650002 -1.138 6.4681135e-40
11.521 -8.934 -1.1390001 7.3864404e-40
11.502 -8.8900003 -1.135 7.3864404e-40
11.489 -8.8219995 -1.13 6.4716447e-40
11.58 -8.835 -1.138 6.4716868e-40
11.582 -8.7790003 -1.135 6.4680574e-40
11.553 -8.6990004 -1.128 6.4644701e-40
11.615 -8.6890001 -1.132 5.5461291e-40
11.598 -8.6190004 -1.127 7.3863983e-40
12.06 -8.9350004 -1.179 5.5388984e-40
12.055 -8.8719997 -1.175 5.5353531e-40
11.848 -8.6619997 -1.148 3.6986292e-40
11.927 -8.6630001 -1.154 4.6133688e-40
11.833 -8.5369997 -1.14 5.5281785e-40
11.989 -8.5930004 -1.155 3.6950559e-40
12.018 -8.5570002 -1.155 5.5317378e-40
12.002 -8.5170002 -1.152 5.5281365e-40
11.881 -8.375 -1.135 4.6133548e-40
11.881 -8.3190002 -1.132 4.6097675e-40
11.789 -8.1990004 -1.119 4.6170262e-40
11.851 -8.1870003 -1.123 4.6133968e-40
11.89 -8.1590004 -1.124 4.6169842e-40
11.912 -8.1190004 -1.124 4.6169982e-40
11.982 -8.1400003 -1.13 5.5317518e-40
11.983 -8.0860004 -1.128 5.5317798e-40
12.005 -8.0459995 -1.127 5.5389545e-40
12.145 -8.0839996 -1.14 6.4537081e-40
12.147 -8.0310001 -1.137 5.5353531e-40
12.084 -7.934 -1.128 6.4608828e-40
12.465 -8.1300001 -1.1670001 8.2976347e-40
12.65 -8.2220001 -1.186 7.3756644e-40
12.624 -8.1490002 -1.1799999 9.2159757e-40
12.261 -7.8590002 -1.138 7.3756924e-40
12.695 -8.0819998 -1.182 7.3793218e-40
12.69 -8.0229998 -1.179 9.219577e-40
12.656 -7.9460001 -1.173 8.3048374e-40
12.71 -7.9239998 -1.176 7.3900698e-40
12.766 -7.9320002 -1.1799999 8.3084247e-40
12.776 -7.882 -1.179 8.3084107e-40
12.856 -7.8759999 -1.1849999 8.311984e-40
12.861 -7.823 -1.183 8.3083827e-40
12.931 -7.8109999 -1.188 9.2267516e-40
12.967 -7.777 -1.189 9.2268077e-40
12.985 -7.7329998 -1.188 8.3083967e-40
13.079 -7.7610002 -1.197 8.31197e-40
13.181 -7.7659998 -1.205 8.312012e-40
13.219 -7.7319999 -1.207 8.311984e-40
13.245 -7.6919999 -1.207 9.2339683e-40
13.291 -7.6630001 -1.209 8.3083827e-40
13.277 -7.599 -1.205 1.0148694e-39
13.396 -7.612 -1.215 1.0145121e-39
13.42 -7.598 -1.216 1.0148694e-39
13.439 -7.553 -1.216 9.2339123e-40
13.494 -7.5279999 -1.219 9.2267657e-40
13.561 -7.5100002 -1.224 8.311998e-40
13.529 -7.4359999 -1.2180001 1.0152281e-39
13.585 -7.4120002 -1.221 7.3936431e-40
13.629 -7.381 -1.224 9.2267797e-40
13.695 -7.3889999 -1.229 9.2231783e-40
13.703 -7.3369999 -1.228 7.3864404e-40
13.733 -7.2979999 -1.228 9.2267657e-40
13.784 -7.2690001 -1.2309999 7.3900417e-40
13.838 -7.243 -1.235 7.3900417e-40
13.896 -7.2179999 -1.238 7.3864544e-40
13.114 -6.757 -1.155 8.3048374e-40
13.296 -6.8249998 -1.173 1.1063476e-39
13.201 -6.724 -1.161 1.0141533e-39
13.188 -6.665 -1.1569999 9.230325e-40
13.196 -6.6170001 -1.156 1.0145107e-39
13.301 -6.618 -1.164 8.31197e-40
13.496 -6.6630001 -1.182 8.30118e-40
13.364 -6.5450001 -1.1670001 8.301208e-40
13.401 -6.5370002 -1.169 8.301194e-40
13.609 -6.586 -1.189 7.3828811e-40
14.311 -6.8720002 -1.258 8.3084107e-40
14.382 -6.8499999 -1.263 7.3936431e-40
14.435 -6.8200002 -1.266 8.311998e-40
14.489 -6.79 -1.27 7.3901118e-40
14.545 -6.7610002 -1.273 1.1070678e-39
14.608 -6.7620001 -1.279 1.1070678e-39
14.654 -6.7280002 -1.281 1.1067063e-39
14.71 -6.697 -1.285 1.1985404e-39
14.698 -6.6360002 -1.281 1.6580794e-39
14.543 -6.5110002 -1.263 1.3868791e-39
14.477 -6.427 -1.255 1.1077881e-39
14.505 -6.3850002 -1.256 1.9978239e-38
14.837 -6.5040002 -1.288 1.3027513e-38
14.679 -6.3790002 -1.27 9.2304371e-40
15.108 -6.5100002 -1.311 7.4871377e-40
15.121 -6.46 -1.3099999 1.3655268e-38
15.292 -6.4759998 -1.325 5.7358621e-39
15.351 -6.4439998 -1.329 4.5218794e-39
15.114 -6.289 -1.304 1.6634758e-39
14.953 -6.1659999 -1.286 1.751361e-39
5.4770002 -2.2309999 -0.34299999 2.482808e-39
5.5019999 -2.221 -0.345 6.8163179e-39
15.911 -6.3590002 -1.374 1.1799115e-38
16.219 -6.4239998 -1.402 1.6669303e-38
6.8790002 -2.6830001 -0.47799999 4.158824e-39
6.8559999 -2.6489999 -0.47499999 7.4621385e-40
6.8670001 -2.642 -0.47499999 3.1396779e-39
6.8740001 -2.619 -0.47499999 1.2530608e-38
6.848 -2.585 -0.472 1.0984134e-38
17.304001 -6.5120001 -1.498 8.1099308e-39
17.332001 -6.46 -1.499 8.410194e-39
5.645 -2.0650001 -0.352 5.6343899e-39
5.6690001 -2.0539999 -0.35299999 3.1386297e-39
5.8010001 -2.092 -0.366 1.7044963e-38
5.802 -2.072 -0.36500001 1.6126955e-38
5.803 -2.052 -0.36500001 8.6788818e-39
5.822 -2.0380001 -0.366 1.2255099e-38
5.7820001 -2.003 -0.36199999 8.0313768e-39
5.8140001 -1.994 -0.36399999 1.2230197e-39
17.658001 -5.9569998 -1.512 6.7496553e-39
17.674999 -5.901 -1.512 3.8747094e-39
7.1729999 -2.3529999 -0.493 8.0155715e-39
7.1079998 -2.3069999 -0.486 8.5744752e-39
6.1059999 -1.957 -0.38800001 9.3177786e-39
17.843 -5.7090001 -1.521 1.1839103e-38
17.827 -5.6729999 -1.518 1.0255585e-38
6.8930001 -2.1289999 -0.46200001 1.2193819e-38
5.5869999 -1.701 -0.336 5.8968909e-39
5.3080001 -1.597 -0.30899999 9.4031513e-39
5.289 -1.573 -0.30599999 1.3832845e-38
5.2859998 -1.554 -0.30599999 6.6358741e-39
5.256 -1.536 -0.30199999 1.2716053e-38
5.276 -1.524 -0.30399999 6.7305963e-39
5.3210001 -1.5190001 -0.308 6.3661059e-39
5.3140001 -1.499 -0.30700001 6.2873235e-39
5.3210001 -1.483 -0.30700001 4.2456597e-39
5.3140001 -1.4630001 -0.30599999 3.8754282e-39
5.3990002 -1.469 -0.31299999 1.2549665e-38
5.4239998 -1.466 -0.31600001 1.0886192e-38
5.6399999 -1.507 -0.336 9.0537403e-39
5.5910001 -1.475 -0.331 1.5659863e-38
5.5939999 -1.457 -0.33000001 8.6463478e-40
5.5640001 -1.4299999 -0.32699999 2.1941e-38
5.6259999 -1.427 -0.333 9.2166105e-39
5.7480001 -1.4400001 -0.34400001 2.1392405e-38
5.664 -1.409 -0.336 5.2522306e-39
5.6469998 -1.386 -0.33399999 5.2561781e-39
5.6240001 -1.3609999 -0.331 3.42128e-39
5.4850001 -1.309 -0.317 1.4000765e-38
5.5219998 -1.299 -0.32100001 5.1712145e-39
5.4910002 -1.274 -0.317 1.1690073e-38
5.6100001 -1.283 -0.32800001 1.0134252e-38
5.5879998 -1.2690001 -0.32600001 1.2735453e-38
5.5549998 -1.243 -0.322 1.3082321e-38
5.6389999 -1.243 -0.33000001 6.0188978e-39
5.7909999 -1.258 -0.34400001 7.7415154e-39
5.8940001 -1.262 -0.35299999 7.0068763e-39
5.9499998 -1.255 -0.35800001 3.1421848e-39
5.9460001 -1.234 -0.35699999 2.5868586e-39
5.9419999 -1.224 -0.35699999 3.9672623e-39
5.8179998 -1.178 -0.345 3.6967991e-39
5.6849999 -1.132 -0.33199999 5.1762074e-39
5.717 -1.12 -0.33500001 1.7709345e-38
5.8639998 -1.131 -0.34799999 1.2815414e-38
5.9749999 -1.133 -0.35800001 8.1478681e-39
7.1440001 -1.337 -0.46700001 2.1008897e-38
7.1500001 -1.326 -0.46799999 5.8100875e-39
7.1500001 -1.303 -0.46700001 1.2367005e-38
7.1560001 -1.281 -0.46700001 5.5532673e-39
5.4239998 -0.94700003 -0.30500001 1.0139615e-38
5.4400001 -0.93199998 -0.30599999 9.2536005e-39
7.2210002 -1.223 -0.472 9.7730128e-39
5.9130001 -0.977 -0.34999999 1.3840289e-39
5.6360002 -0.921 -0.324 3.9625904e-39
6.053 -0.972 -0.36300001 1.3178855e-38
6.0310001 -0.949 -0.36000001 6.5584117e-39
6.0339999 -0.93000001 -0.36000001 6.5924184e-39
7.8060002 -1.16 -0.52399999 1.7538708e-39
7.5370002 -1.095 -0.49900001 6.0823472e-39
7.4920001 -1.076 -0.495 6.36722e-39
7.4439998 -1.045 -0.49000001 2.350982e-38
5.9819999 -0.81599998 -0.354 9.6732838e-39
5.9899998 -0.79799998 -0.35499999 1.2077887e-38
5.9850001 -0.778 -0.354 1.2979039e-38
6.013 -0.76200002 -0.35600001 2.769843e-39
19.273001 -2.4400001 -1.585 2.7669493e-39
6.046 -0.73799998 -0.359 5.4416609e-39
19.292 -2.3499999 -1.585 2.6751208e-39
6.0510001 -0.69999999 -0.359 8.0195919e-39
6.0450001 -0.68000001 -0.35800001 7.4789583e-39
19.302 -2.1059999 -1.584 2.9509818e-39
19.261 -2.04 -1.579 2.5832839e-39
19.235001 -2.007 -1.576 2.5825664e-39
19.231001 -1.9450001 -1.576 2.5836553e-39
19.219 -1.883 -1.574 2.6765655e-39
19.191 -1.819 -1.571 3.2290219e-39
19.181 -1.757 -1.569 3.3212189e-39
19.149 -1.694 -1.566 2.5872636e-39
19.139999 -1.632 -1.5650001 1.3194787e-38
19.125 -1.601 -1.563 1.8623482e-38
19.104 -1.539 -1.561 1.8438393e-38
19.073 -1.476 -1.557 1.7610067e-38
19.068001 -1.415 -1.556 1.033135e-38
19.038 -1.353 -1.553 1.9531053e-38
19.007 -1.29 -1.55 7.1178115e-39
19.023001 -1.232 -1.551 8.6800841e-39
18.987 -1.199 -1.548 1.6952097e-38
18.969 -1.138 -1.546 1.9721578e-38
18.945999 -1.077 -1.543 1.881005e-38
18.926001 -1.016 -1.541 2.0460556e-38
18.915001 -0.95599997 -1.54 2.0283013e-38
18.892 -0.89499998 -1.5369999 2.0829722e-38
18.877001 -0.83499998 -1.536 2.0554924e-38
18.862 -0.80500001 -1.534 1.8994437e-38
18.865999 -0.74599999 -1.534 1.7887027e-38
18.816999 -0.68400002 -1.53 1.8166482e-38
18.805 -0.625 -1.528 1.8807887e-38
18.778999 -0.565 -1.526 1.926455e-38
18.764999 -0.505 -1.524 1.8438387e-38
18.74 -0.44600001 -1.522 1.7795542e-38
18.735001 -0.41600001 -1.521 1.8712465e-38
18.724001 -0.35699999 -1.52 1.89026e-38
18.712999 -0.29800001 -1.5190001 1.8441623e-38
18.709999 -0.23899999 -1.5190001 1.9632989e-38
18.673 -0.18000001 -1.515 1.7517524e-38
18.666 -0.121 -1.515 1.6778527e-38
18.638 -0.063000001 -1.512 1.6137464e-38
18.639999 -0.033 -1.512 1.6598438e-38
17.534 0.039999999 -1.522 1.8708101e-38
17.514 0.094999999 -1.52 1.834943e-38
17.49 0.15000001 -1.518 1.8622064e-38
17.458 0.204 -1.515 1.7150891e-38
17.437 0.23100001 -1.513 1.825329e-38
17.429001 0.28600001 -1.512 1.8252921e-38
17.41 0.34 -1.51 1.8068174e-38
17.393 0.39500001 -1.5089999 1.8346188e-38
17.386999 0.449 -1.508 1.7333493e-38
17.364 0.50300002 -1.506 1.7980642e-38
17.360001 0.55800003 -1.506 1.6504457e-38
17.334 0.58399999 -1.503 1.6871435e-38
17.334 0.63800001 -1.5039999 1.6321132e-38
17.32 0.69199997 -1.502 1.6319352e-38
17.290001 0.74599999 -1.5 1.6875381e-38
17.305 0.801 -1.501 1.6597723e-38
17.312 0.85600001 -1.502 1.6690631e-38
17.290001 0.90899998 -1.5 1.7976335e-38
17.288 0.93599999 -1.5 1.9719415e-38
17.278999 0.99000001 -1.5 1.8072122e-38
17.27 1.044 -1.499 1.7059777e-38
17.289 1.1 -1.501 1.6876104e-38
17.292999 1.154 -1.502 1.742856e-38
17.271 1.207 -1.5 1.843877e-38
17.268 1.262 -1.5 1.742928e-38
17.281 1.29 -1.502 1.8071771e-38
17.259001 1.3430001 -1.5 1.8808246e-38
17.257 1.397 -1.5 1.8256874e-38
17.280001 1.454 -1.503 1.8714974e-38
17.264 1.507 -1.502 1.9360349e-38
17.264999 1.562 -1.503 1.7244177e-38
17.254 1.6160001 -1.502 1.6141064e-38
17.247 1.642 -1.502 1.760971e-38
17.254 1.698 -1.503 1.834475e-38
17.249001 1.752 -1.503 1.8252186e-38
17.223 1.804 -1.501 1.7515358e-38
17.219999 1.858 -1.501 1.7520024e-38
17.231001 1.914 -1.503 1.9081962e-38
17.221001 1.9680001 -1.502 2.0094663e-38
17.257999 2 -1.506 1.9175238e-38
17.242001 2.053 -1.505 1.8256175e-38
17.226999 2.1059999 -1.5039999 1.8624952e-38
17.219999 2.1600001 -1.5039999 1.8343685e-38
17.202 2.2130001 -1.503 1.8622082e-38
17.222 2.27 -1.506 1.8439108e-38
17.207001 2.323 -1.505 1.8071378e-38
17.209 2.3510001 -1.506 1.8072116e-38
17.181999 2.402 -1.5039999 1.7981382e-38
17.188 2.4579999 -1.505 1.8623872e-38
17.202 2.516 -1.507 1.7888822e-38
17.184 2.5680001 -1.506 1.8807539e-38
17.188 2.6240001 -1.508 1.954545e-38
17.209 2.6819999 -1.511 1.9267075e-38
17.191 2.707 -1.5089999 1.8075007e-38
17.198 2.7639999 -1.511 1.9542584e-38
17.205 2.8199999 -1.512 1.9454703e-38
17.212 2.8770001 -1.5140001 1.9548702e-38
17.207001 2.9319999 -1.5140001 2.0745454e-38
17.212999 2.9890001 -1.516 2.0380258e-38
17.195999 3.0409999 -1.515 2.1664174e-38
17.188999 3.0680001 -1.515 2.2035082e-38
17.167999 3.1199999 -1.5140001 2.304782e-38
17.164 3.175 -1.5140001 2.3050314e-38
17.181 3.234 -1.517 2.3418026e-38
17.167 3.2869999 -1.517 2.3509132e-38
17.18 3.346 -1.5190001 2.3509851e-38
17.193001 3.404 -1.521 2.3500885e-38
17.254 3.4449999 -1.528 2.1660586e-38
17.275999 3.506 -1.531 2.3227136e-38
17.261 3.559 -1.531 2.3499771e-38
17.228001 3.609 -1.529 2.1110968e-38
17.143 3.6470001 -1.521 2.0655392e-38
17.075001 3.6889999 -1.516 2.1575194e-38
16.948999 3.717 -1.5039999 2.285982e-38
16.83 3.7460001 -1.493 2.0376648e-38
16.719 3.7490001 -1.483 2.1113498e-38
16.625999 3.783 -1.475 2.1759585e-38
16.496 3.8069999 -1.4630001 2.0844135e-38
16.385 3.836 -1.4529999 2.3509886e-38
16.285999 3.8670001 -1.444 2.3509886e-38
16.233 3.908 -1.4400001 2.323186e-38
16.201 3.954 -1.438 2.1754898e-38
16.193001 3.9790001 -1.438 2.1107376e-38
16.211 4.0380001 -1.441 2.1846383e-38
16.198 4.0890002 -1.441 2.0558898e-38
16.191 4.1409998 -1.441 2.1754522e-38
16.181999 4.1929998 -1.442 2.2215534e-38
16.163 4.2420001 -1.441 2.1846008e-38
16.122999 4.2859998 -1.438 2.2214091e-38
16.115999 4.3109999 -1.438 2.2489595e-38
16.097 4.3600001 -1.438 2.1118183e-38
16.059999 4.4039998 -1.4349999 2.1114929e-38
16.032 4.4510002 -1.434 2.2313086e-38
16.02 4.5019999 -1.434 2.3228593e-38
15.974 4.5430002 -1.431 2.3318269e-38
15.946 4.5890002 -1.4299999 2.1940385e-38
15.929 4.6110001 -1.429 2.1850011e-38
15.869 4.6479998 -1.424 2.0469578e-38
15.831 4.691 -1.4220001 2.1669199e-38
15.793 4.7340002 -1.419 2.3324739e-38
15.742 4.7719998 -1.416 2.3047452e-38
15.714 4.8179998 -1.414 2.3507374e-38
15.68 4.8610001 -1.4119999 2.2214433e-38
15.636 4.8740001 -1.408 2.0465603e-38
15.607 4.9190001 -1.4069999 2.1480116e-38
15.55 4.9549999 -1.403 2.2404218e-38
15.519 4.9990001 -1.401 2.1479023e-38
15.477 5.039 -1.398 2.1855015e-38
15.436 5.079 -1.396 2.1945072e-38
15.39 5.118 -1.393 2.276654e-38
15.348 5.1300001 -1.3890001 2.3418022e-38
15.321 5.1750002 -1.388 2.350879e-38
15.257 5.2069998 -1.383 2.27741e-38
15.22 5.2470002 -1.381 2.1396921e-38
15.181 5.2870002 -1.3789999 2.3504809e-38
15.142 5.3270001 -1.376 2.2401715e-38
15.11 5.369 -1.375 2.1754559e-38
15.074 5.3829999 -1.372 2.1756333e-38
15.032 5.421 -1.369 2.2493894e-38
14.981 5.4559999 -1.3660001 2.1946119e-38
14.955 5.5 -1.365 2.2676507e-38
14.917 5.539 -1.363 2.1759578e-38
14.877 5.5780001 -1.36 2.2771599e-38
14.837 5.6160002 -1.358 2.2221273e-38
14.819 5.6360002 -1.357 2.2034003e-38
14.783 5.6750002 -1.355 2.0102593e-38
14.739 5.711 -1.352 2.2031133e-38
14.702 5.75 -1.35 2.1297151e-38
14.673 5.7919998 -1.349 1.9182785e-38
14.635 5.8299999 -1.347 2.0931632e-38
14.59 5.8649998 -1.344 2.2306271e-38
14.576 5.8860002 -1.344 2.1018055e-38
14.54 5.9250002 -1.342 2.0840178e-38
14.496 5.96 -1.339 2.1759953e-38
14.439 5.9889998 -1.335 2.0836546e-38
14.422 6.0359998 -1.335 2.3041688e-38
14.377 6.0700002 -1.3329999 2.1026315e-38
14.334 6.105 -1.33 1.9456141e-38
14.31 6.1209998 -1.3279999 1.9268152e-38
14.269 6.1570001 -1.326 2.091757e-38
14.233 6.1939998 -1.324 1.9918935e-38
14.206 6.2360001 -1.324 1.7620511e-38
14.166 6.2709999 -1.321 1.881372e-38
14.123 6.3049998 -1.319 1.9547606e-38
14.103 6.3499999 -1.319 1.9452539e-38
14.064 6.3590002 -1.316 1.9913872e-38
14.011 6.388 -1.312 2.3500498e-38
13.959 6.4169998 -1.309 2.3499411e-38
13.947 6.4650002 -1.3099999 2.3498339e-38
13.925 6.5079999 -1.3099999 2.3500124e-38
13.908 6.553 -1.3099999 2.3500489e-38
13.859 6.5830002 -1.307 2.3407225e-38
13.85 6.6059999 -1.307 2.2671808e-38
13.848 6.658 -1.309 2.3495456e-38
13.823 6.6999998 -1.309 2.3494732e-38
13.793 6.7389998 -1.308 2.3499403e-38
13.777 6.7849998 -1.308 2.3496177e-38
13.74 6.8200002 -1.306 2.1929952e-38
13.688 6.848 -1.303 2.2575299e-38
13.684 6.8730001 -1.304 2.2387681e-38
13.655 6.9120002 -1.303 2.3494707e-38
13.625 6.9510002 -1.302 2.3493995e-38
13.594 6.9889998 -1.301 2.3490059e-38
13.565 7.0279999 -1.3 2.2206521e-38
13.534 7.066 -1.299 2.2025378e-38
13.514 7.1090002 -1.3 2.239307e-38
13.488 7.1230001 -1.298 2.349654e-38
13.457 7.1599998 -1.2970001 2.349653e-38
13.468 7.2210002 -1.301 2.3494012e-38
13.436 7.2579999 -1.3 2.3495829e-38
13.41 7.2979999 -1.299 2.2394161e-38
13.392 7.3429999 -1.3 2.3495812e-38
13.381 7.3920002 -1.301 2.3220316e-38
13.364 7.4099998 -1.301 2.3038441e-38
13.343 7.4530001 -1.301 2.3494398e-38
13.33 7.5009999 -1.302 2.34987e-38
13.308 7.5440001 -1.302 2.3499768e-38
13.284 7.586 -1.302 2.3499763e-38
13.27 7.6329999 -1.303 2.3496533e-38
13.241 7.6719999 -1.303 2.3498691e-38
13.226 7.691 -1.302 2.3497621e-38
13.203 7.7329998 -1.303 2.3496533e-38
13.184 7.7779999 -1.303 2.3498332e-38
13.16 7.8189998 -1.303 2.3498685e-38
13.114 7.848 -1.301 2.3502284e-38
13.088 7.888 -1.301 2.3500505e-38
13.075 7.9369998 -1.302 2.3499049e-38
13.047 7.9749999 -1.302 2.3501576e-38
13.041 8 -1.302 2.3496566e-38
13.026 8.0469999 -1.304 2.3503007e-38
13.014 8.0970001 -1.3049999 2.350087e-38
12.995 8.1420002 -1.306 2.3499779e-38
12.963 8.1780005 -1.3049999 2.3503382e-38
12.94 8.2209997 -1.306 2.3499421e-38
12.921 8.2659998 -1.306 2.3502299e-38
12.912 8.2880001 -1.307 2.349873e-38
12.926 8.3549995 -1.311 2.3500515e-38
12.883 8.3850002 -1.3099999 2.3495833e-38
12.853 8.4230003 -1.309 2.3500857e-38
12.831 8.467 -1.3099999 2.3500857e-38
12.81 8.5100002 -1.3099999 2.3497609e-38
12.801 8.5340004 -1.311 2.3499777e-38
12.778 8.5760002 -1.311 2.3500159e-38
12.754 8.618 -1.312 2.3503016e-38
12.74 8.6669998 -1.313 2.3497252e-38
12.719 8.7119999 -1.314 2.3499065e-38
12.692 8.7519999 -1.314 2.3402922e-38
12.679 8.802 -1.316 2.3403996e-38
12.685 8.835 -1.318 2.3495094e-38
12.644 8.8660002 -1.317 2.3497626e-38
12.608 8.8999996 -1.316 2.2757907e-38
12.589 8.9460001 -1.317 2.3492222e-38
9.9160004 7.0869999 -0.99699998 3.8750835e-39
9.816 7.0619998 -0.98699999 4.424293e-39
9.7220001 7.04 -0.97899997 1.6602472e-39
9.7399998 7.0770001 -0.98199999 1.6623898e-39
9.6210003 7.0359998 -0.97000003 2.0275766e-39
9.618 7.0809999 -0.97299999 3.3272823e-39
9.559 7.0840001 -0.96799999 4.4232112e-39
9.5450001 7.1199999 -0.96899998 2.9509664e-39
9.5 7.1329999 -0.96700001 3.6028084e-39
9.4379997 7.132 -0.96200001 2.5829308e-39
9.4239998 7.145 -0.96100003 1.8474943e-39
9.3760004 7.1550002 -0.958 2.3091983e-39
9.2740002 7.1240001 -0.94800001 2.4964735e-39
9.2849998 7.178 -0.95200002 2.9570775e-39
9.2720003 7.2150002 -0.954 5.0638975e-39
9.2620001 7.2540002 -0.95499998 1.38617e-39
9.2080002 7.2579999 -0.95099998 3.2278952e-39
9.1210003 7.2360001 -0.94300002 3.8044959e-39
9.0270004 7.1849999 -0.93300003 1.4216052e-38
8.9750004 7.1890001 -0.92900002 2.3507733e-38
8.9870005 7.2449999 -0.93400002 5.8083877e-39
8.9540005 7.2659998 -0.93199998 1.9379089e-39
8.8719997 7.2449999 -0.92500001 4.8813041e-39
8.8369999 7.2620001 -0.92299998 1.2032123e-39
8.6549997 -7.2309999 -0.90799999 1.1074322e-39
10.368 -8.6000004 -1.123 7.3863843e-40
10.394 -8.5670004 -1.123 5.5497445e-40
10.419 -8.5600004 -1.124 7.3900698e-40
10.43 -8.5139999 -1.122 8.3083967e-40
10.475 -8.4969997 -1.125 7.3900137e-40
10.513 -8.4720001 -1.126 7.3900277e-40
10.552 -8.4490004 -1.127 7.3971883e-40
10.616 -8.4460001 -1.132 8.3083687e-40
10.63 -8.4020004 -1.131 8.311956e-40
10.69 -8.4230003 -1.136 7.3900137e-40
10.693 -8.3710003 -1.1339999 6.4716868e-40
10.71 -8.3299999 -1.132 8.3155433e-40
10.698 -8.2670002 -1.128 7.393615e-40
10.858 -8.3360004 -1.1440001 7.393629e-40
10.872 -8.2919998 -1.143 8.3047813e-40
10.844 -8.217 -1.136 7.393601e-40
10.928 -8.2270002 -1.143 8.311984e-40
10.959 -8.2229996 -1.145 6.4681135e-40
10.954 -8.1660004 -1.142 9.2267516e-40
10.962 -8.1190004 -1.14 7.3900838e-40
10.956 -8.0609999 -1.136 7.393629e-40
11.056 -8.0810003 -1.145 8.3047953e-40
11.159 -8.1029997 -1.154 1.1067063e-39
11.194 -8.1009998 -1.1569999 8.3191587e-40
11.222 -8.0670004 -1.1569999 8.3083967e-40
11.208 -8.0039997 -1.153 6.4680714e-40
11.215 -7.9559999 -1.15 1.0145107e-39
11.266 -7.9390001 -1.153 7.3899857e-40
11.33 -7.9310002 -1.158 7.3900557e-40
11.347 -7.8899999 -1.1569999 6.4681135e-40
11.362 -7.8740001 -1.158 8.311984e-40
11.427 -7.8660002 -1.1619999 6.4680854e-40
11.443 -7.8239999 -1.161 7.382825e-40
11.464 -7.7859998 -1.161 6.4644841e-40
11.53 -7.7779999 -1.166 1.1063462e-39
11.592 -7.7670002 -1.17 8.3083967e-40
11.622 -7.7340002 -1.171 8.3048094e-40
11.671 -7.7129998 -1.174 8.3083967e-40
11.646 -7.671 -1.17 1.0145107e-39
11.685 -7.6440001 -1.171 6.4717148e-40
11.711 -7.6090002 -1.171 1.1989033e-39
11.753 -7.5840001 -1.174 1.0145121e-39
11.836 -7.5840001 -1.1799999 7.3936571e-40
11.866 -7.5510001 -1.181 1.107065e-39
11.868 -7.5 -1.179 1.1067077e-39
11.875 -7.4780002 -1.178 1.1070664e-39
11.932 -7.4619999 -1.182 1.0152309e-39
11.993 -7.447 -1.186 7.3936711e-40
11.989 -7.3930001 -1.183 1.1070664e-39
12.024 -7.3629999 -1.1849999 1.0155911e-39
12.098 -7.3559999 -1.1900001 1.0159484e-39
12.164 -7.3429999 -1.1950001 9.2339403e-40
12.225 -7.3540001 -1.201 1.0159498e-39
12.315 -7.355 -1.209 9.2375416e-40
12.332 -7.3130002 -1.2079999 9.241115e-40
12.335 -7.263 -1.206 8.322746e-40
12.438 -7.2709999 -1.215 1.0155911e-39
12.42 -7.2080002 -1.21 1.1070678e-39
12.508 -7.2059999 -1.2180001 1.0159484e-39
12.545 -7.2020001 -1.221 9.2375276e-40
12.62 -7.1919999 -1.226 1.1077811e-39
12.627 -7.1430001 -1.225 8.322788e-40
12.729 -7.1479998 -1.234 1.0159498e-39
12.793 -7.131 -1.238 1.1999767e-39
12.826 -7.0970001 -1.24 1.1992593e-39
12.859 -7.0619998 -1.2410001 1.0155883e-39
12.889 -7.052 -1.243 1.1074266e-39
12.942 -7.0289998 -1.2460001 1.0155925e-39
13.066 -7.0430002 -1.258 1.2907402e-39
13.187 -7.0539999 -1.2690001 9.2339543e-40
13.277 -7.0489998 -1.276 9.2267797e-40
13.305 -7.0100002 -1.277 9.2231783e-40
13.334 -6.9720001 -1.278 8.3048234e-40
13.355 -6.9559999 -1.279 8.3047953e-40
13.152 -6.7989998 -1.2539999 8.3048374e-40
13.097 -6.7179999 -1.2460001 9.2267657e-40
13.092 -6.664 -1.243 9.2267797e-40
13.413 -6.7740002 -1.276 9.219591e-40
13.504 -6.7659998 -1.283 9.2231783e-40
13.493 -6.7080002 -1.28 9.2231223e-40
13.511 -6.6900001 -1.281 7.3864264e-40
13.471 -6.618 -1.274 1.0141519e-39
13.463 -6.5619998 -1.271 1.0145121e-39
13.509 -6.5310001 -1.274 8.3084247e-40
13.525 -6.487 -1.273 1.1067063e-39
13.583 -6.4629998 -1.277 1.0148736e-39
13.656 -6.4439998 -1.283 1.1992593e-39
13.697 -6.4369998 -1.286 1.1992593e-39
13.784 -6.4250002 -1.293 9.230381e-40
13.84 -6.3990002 -1.2970001 1.0148736e-39
13.893 -6.3699999 -1.301 1.3822128e-39
13.929 -6.3340001 -1.303 1.1067119e-39
13.963 -6.296 -1.304 9.241185e-40
14.028 -6.2729998 -1.309 1.2014215e-39
14.078 -6.2680001 -1.313 4.7894714e-39
14.138 -6.2420001 -1.318 2.4968308e-39
14.316 -6.2670002 -1.335 1.6701038e-38
14.321 -6.2150002 -1.3329999 1.3868903e-39
14.004 -6.026 -1.2970001 1.199625e-39
14.08 -6.006 -1.303 1.2921808e-39
14.278 -6.0380001 -1.322 4.596102e-39
14.512 -6.1090002 -1.346 6.4665496e-39
14.729 -6.1459999 -1.367 7.1051255e-39
14.958 -6.1859999 -1.39 9.48998e-39
15.206 -6.2319999 -1.414 8.2136073e-39
15.694 -6.3740001 -1.464 1.9078578e-38
15.696 -6.3169999 -1.462 9.5764373e-39
5.4980001 -2.211 -0.382 5.8025261e-39
5.487 -2.197 -0.38 8.9407536e-39
5.4770002 -2.1730001 -0.37799999 1.227847e-38
6.895 -2.678 -0.52600002 7.4728136e-39
16.316 -6.2399998 -1.516 3.142196e-39
5.4970002 -2.1010001 -0.37799999 5.9908396e-39
6.8499999 -2.5869999 -0.51899999 1.8825199e-38
16.294001 -6.086 -1.508 5.2543998e-39
6.7659998 -2.5190001 -0.509 9.5864636e-39
6.7030001 -2.4719999 -0.50099999 5.3512562e-39
5.927 -2.168 -0.419 4.9878672e-39
5.5229998 -2.0020001 -0.377 9.6847857e-39
5.5229998 -1.983 -0.37599999 6.5617748e-39
5.513 -1.96 -0.37400001 2.1489505e-38
5.5999999 -1.9809999 -0.38299999 4.6184233e-39
5.8169999 -2.036 -0.405 1.7079431e-38
5.7919998 -2.006 -0.40200001 4.3450132e-39
5.8280001 -1.998 -0.405 3.8797484e-39
5.8379998 -1.9809999 -0.405 1.0231833e-38
5.6719999 -1.906 -0.38699999 9.2216369e-39
5.6389999 -1.875 -0.38299999 1.5941456e-38
5.691 -1.882 -0.38800001 9.5011077e-39
6.9959998 -2.2839999 -0.523 4.6187834e-39
6.9689999 -2.2509999 -0.51899999 4.8835055e-39
6.9780002 -2.2290001 -0.51899999 7.8347858e-39
6.0599999 -1.919 -0.42399999 1.2797148e-38
6.9239998 -2.164 -0.51200002 5.4416777e-39
6.197 -1.919 -0.43700001 3.6964824e-39
6.1739998 -1.901 -0.43399999 8.4794658e-39
7.1539998 -2.174 -0.53399998 9.4160769e-39
5.3340001 -1.61 -0.347 7.3852871e-39
5.336 -1.592 -0.347 1.4590981e-38
5.3369999 -1.574 -0.34599999 8.1077938e-39
5.277 -1.539 -0.33899999 6.0153343e-39
5.2800002 -1.521 -0.33899999 1.454559e-38
5.316 -1.523 -0.34299999 4.6259188e-39
5.3080001 -1.502 -0.34099999 4.7098566e-39
5.289 -1.479 -0.33899999 7.6439248e-39
5.3150001 -1.469 -0.34099999 4.152734e-39
5.4180002 -1.478 -0.35100001 4.4300327e-39
5.4359999 -1.465 -0.35299999 7.3817068e-39
5.5890002 -1.4859999 -0.368 1.6224281e-38
5.4349999 -1.437 -0.352 1.3177441e-38
5.4489999 -1.4220001 -0.35299999 4.158845e-39
5.4710002 -1.41 -0.35499999 9.9534664e-39
5.7010002 -1.449 -0.377 2.0165495e-38
5.7270002 -1.436 -0.38 1.6483139e-38
5.5650001 -1.378 -0.36300001 8.2911005e-39
5.6059999 -1.369 -0.366 9.9502378e-39
5.7420001 -1.392 -0.38 5.7142877e-39
5.7059999 -1.364 -0.37599999 1.2005486e-38
5.493 -1.296 -0.354 1.0426312e-38
5.474 -1.274 -0.352 1.1990346e-38
5.4889998 -1.2589999 -0.35299999 1.5300768e-38
5.5089998 -1.245 -0.354 9.6062303e-39
5.7789998 -1.286 -0.38100001 4.0548014e-39
5.8039999 -1.2819999 -0.38299999 4.3371435e-39
5.9390001 -1.2920001 -0.39700001 5.9145249e-39
6.1259999 -1.311 -0.41499999 2.4907057e-39
6.0479999 -1.275 -0.40700001 4.9738851e-39
5.869 -1.219 -0.38800001 2.1237309e-39
5.7129998 -1.168 -0.37200001 4.9767353e-39
5.6810002 -1.1440001 -0.36899999 1.0140024e-38
5.6589999 -1.1210001 -0.366 7.7641436e-39
7.461 -1.457 -0.546 1.2621343e-38
6.4720001 -1.2460001 -0.447 4.8999834e-39
6.4580002 -1.223 -0.44499999 1.629908e-38
5.763 -1.075 -0.375 5.2518747e-39
5.7249999 -1.05 -0.37099999 2.1290506e-38
5.5289998 -0.99699998 -0.35100001 5.2562818e-39
5.5019999 -0.97399998 -0.34799999 1.1921139e-38
5.4549999 -0.95700002 -0.34400001 1.3919241e-38
5.4239998 -0.935 -0.34 1.3285778e-38
5.4039998 -0.91399997 -0.338 7.2042071e-39
5.4109998 -0.89700001 -0.338 1.2071741e-38
6.0840001 -0.986 -0.405 2.348891e-38
5.8499999 -0.912 -0.38100001 1.4751494e-38
5.9439998 -0.91600001 -0.38999999 2.0283236e-38
7.4679999 -1.096 -0.54100001 5.0642744e-39
7.474 -1.073 -0.54100001 9.9127335e-39
5.9650002 -0.84299999 -0.391 6.3596796e-39
6.0089998 -0.82999998 -0.39500001 1.475444e-38
5.9819999 -0.80699998 -0.39199999 8.0216406e-39
6.0009999 -0.80000001 -0.39399999 4.4354319e-39
6.027 -0.78399998 -0.39700001 2.06596e-38
6.0510001 -0.76800001 -0.39899999 3.9701266e-39
5.9879999 -0.741 -0.39199999 1.152184e-38
18.031 -2.1199999 -1.5829999 5.5374691e-39
6.0380001 -0.708 -0.39700001 7.7559544e-39
6.0250001 -0.68800002 -0.39500001 2.3494944e-38
6.0219998 -0.67799997 -0.39500001 5.3703292e-39
18.063 -1.923 -1.584 2.7680409e-39
18.032 -1.862 -1.58 2.8613183e-39
18.024 -1.804 -1.579 3.2290219e-39
18.025 -1.747 -1.579 3.3212203e-39
18.031 -1.691 -1.579 3.4134145e-39
18.02 -1.633 -1.577 4.3342876e-39
17.997 -1.602 -1.574 8.7506395e-39
17.976 -1.543 -1.572 1.898683e-38
17.966999 -1.4859999 -1.571 1.8718929e-38
17.962999 -1.429 -1.5700001 1.7612948e-38
17.964001 -1.372 -1.569 1.843876e-38
17.952 -1.314 -1.568 1.7427838e-38
17.92 -1.256 -1.564 1.5867712e-38
17.829 -1.221 -1.5549999 1.5218424e-38
17.882 -1.168 -1.5599999 8.6714563e-39
17.864 -1.1109999 -1.558 1.0687127e-38
17.832001 -1.053 -1.554 1.427805e-38
17.825001 -0.99599999 -1.553 1.3640641e-38
17.799999 -0.93900001 -1.551 1.5114708e-38
17.789 -0.88200003 -1.549 1.1528115e-38
17.778999 -0.85399997 -1.548 1.1251094e-38
17.787001 -0.79799998 -1.549 1.1159236e-38
17.774 -0.741 -1.5470001 1.4852508e-38
17.754 -0.685 -1.545 1.5956336e-38
17.728001 -0.62800002 -1.5420001 1.7796614e-38
17.714001 -0.57200003 -1.541 1.7150544e-38
17.691999 -0.51599997 -1.538 1.6500473e-38
17.693001 -0.48800001 -1.538 1.6314972e-38
17.671 -0.43200001 -1.536 1.6213034e-38
17.646 -0.37599999 -1.533 1.7884143e-38
17.621 -0.31999999 -1.531 1.9084483e-38
17.608 -0.264 -1.53 2.0098275e-38
17.589001 -0.20900001 -1.528 1.9176688e-38
17.573999 -0.153 -1.526 1.8625656e-38
17.563999 -0.126 -1.525 1.8069257e-38
17.556 -0.07 -1.524 1.8071393e-38
17.538 -0.015 -1.522 1.7879428e-38
16.615 0.012 -1.534 1.8624575e-38
16.594999 0.064999998 -1.5319999 1.8256144e-38
16.584999 0.117 -1.531 1.7137938e-38
16.57 0.169 -1.529 1.4929899e-38
16.538 0.22 -1.526 7.4830137e-39
16.573 0.273 -1.53 9.9733607e-39
16.549 0.29800001 -1.527 1.0155957e-38
16.528 0.34999999 -1.525 1.1998761e-38
16.518 0.40200001 -1.524 1.3287342e-38
16.487 0.45300001 -1.521 1.779446e-38
16.483999 0.505 -1.521 1.7882711e-38
16.459999 0.55599999 -1.5190001 1.8069981e-38
16.448 0.60699999 -1.518 1.7059769e-38
16.440001 0.63300002 -1.517 1.733349e-38
16.424 0.68400002 -1.515 1.6324013e-38
16.405001 0.73500001 -1.5140001 1.7423518e-38
16.396999 0.78600001 -1.513 1.6780656e-38
16.385 0.83700001 -1.512 1.622929e-38
16.386 0.889 -1.513 1.5766892e-38
16.371 0.93900001 -1.511 1.6506246e-38
16.364 0.96499997 -1.511 1.7055108e-38
16.355 1.016 -1.51 1.742495e-38
16.355 1.067 -1.51 1.7059403e-38
16.348 1.119 -1.51 1.7607902e-38
16.351999 1.17 -1.511 1.6967604e-38
16.334999 1.221 -1.5089999 1.7886305e-38
16.333 1.272 -1.51 1.8617399e-38
16.329 1.298 -1.5089999 1.6779254e-38
16.326 1.349 -1.51 1.87121e-38
16.32 1.4 -1.5089999 1.779734e-38
16.304001 1.451 -1.508 1.9451437e-38
16.313 1.503 -1.51 1.7979228e-38
16.312 1.5549999 -1.51 1.9083411e-38
16.301001 1.605 -1.5089999 1.8719658e-38
16.292999 1.63 -1.5089999 1.871393e-38
16.288 1.681 -1.5089999 1.8899368e-38
16.292 1.734 -1.51 1.8164683e-38
16.287001 1.785 -1.51 1.8624571e-38
16.283001 1.836 -1.51 1.926492e-38
16.281 1.888 -1.51 1.8165045e-38
16.273001 1.939 -1.51 1.8167916e-38
16.275999 1.965 -1.511 2.0371972e-38
16.278 2.017 -1.512 1.8714639e-38
16.281 2.069 -1.513 1.7703706e-38
16.268 2.1199999 -1.512 1.8717124e-38
16.275999 2.1730001 -1.5140001 1.8350153e-38
16.278 2.2249999 -1.515 1.8901526e-38
16.264999 2.276 -1.5140001 1.8165773e-38
16.257999 2.3010001 -1.5140001 1.8257963e-38
16.268 2.3540001 -1.515 1.8351238e-38
16.249001 2.4030001 -1.5140001 1.8436951e-38
16.247 2.4549999 -1.515 1.8531308e-38
16.247 2.5079999 -1.516 1.8440561e-38
16.245001 2.5599999 -1.516 1.899121e-38
16.249001 2.612 -1.518 1.8073205e-38
16.240999 2.6370001 -1.517 1.834942e-38
16.226999 2.687 -1.517 1.8902237e-38
16.224001 2.7390001 -1.517 1.8349804e-38
16.223 2.7920001 -1.518 1.9544727e-38
16.212 2.842 -1.518 1.9546177e-38
16.219 2.8959999 -1.5190001 1.8628531e-38
16.216 2.948 -1.52 1.9641235e-38
16.208 2.9990001 -1.52 1.9917468e-38
16.212999 3.027 -1.521 2.0284818e-38
16.212 3.079 -1.522 2.0006803e-38
16.219999 3.1329999 -1.524 2.1203543e-38
16.205999 3.1830001 -1.524 2.0747967e-38
16.200001 3.2349999 -1.524 2.1023482e-38
16.195 3.2869999 -1.525 2.1756358e-38
16.179001 3.3369999 -1.524 2.2312037e-38
16.176001 3.3629999 -1.524 2.2588636e-38
16.174999 3.415 -1.525 2.2773753e-38
16.162001 3.4660001 -1.525 2.2955997e-38
16.145 3.5150001 -1.524 2.0563948e-38
16.165001 3.573 -1.528 1.4216156e-38
16.171 3.6270001 -1.53 1.5029667e-38
16.263 3.7019999 -1.541 1.9618187e-38
16.309 3.7390001 -1.546 2.046017e-38
16.280001 3.786 -1.544 1.9719759e-38
16.247 3.832 -1.5420001 2.0921906e-38
16.176001 3.8699999 -1.536 2.2484918e-38
16.066 3.8970001 -1.525 2.2310251e-38
15.957 3.9230001 -1.515 2.3325497e-38
15.857 3.9519999 -1.506 2.3509886e-38
15.776 3.9579999 -1.497 2.3509886e-38
15.719 3.9960001 -1.493 2.1846358e-38
15.689 4.0409999 -1.4910001 2.1844539e-38
15.667 4.0879998 -1.49 2.1666993e-38
15.646 4.1350002 -1.489 2.1022401e-38
15.627 4.1830001 -1.488 2.1114591e-38
15.595 4.2270002 -1.4859999 2.0013999e-38
15.578 4.2490001 -1.485 1.954979e-38
15.542 4.2909999 -1.483 2.1481561e-38
15.519 4.3379998 -1.482 2.3506591e-38
15.476 4.3779998 -1.479 2.332042e-38
15.447 4.4219999 -1.477 2.0746901e-38
15.429 4.4699998 -1.476 2.2867037e-38
15.379 4.5079999 -1.472 2.1667757e-38
15.359 4.5279999 -1.471 2.11099e-38
15.333 4.573 -1.47 2.3234344e-38
15.276 4.6079998 -1.465 2.3319699e-38
15.249 4.652 -1.464 2.1393289e-38
15.196 4.6880002 -1.46 2.2492805e-38
15.141 4.724 -1.455 1.9822426e-38
15.096 4.7620001 -1.452 2.3506977e-38
15.058 4.776 -1.449 2.3506608e-38
15.005 4.8109999 -1.444 2.2670735e-38
14.946 4.8439999 -1.4400001 1.9640891e-38
14.91 4.8839998 -1.437 2.1023462e-38
14.859 4.9190001 -1.433 2.1205684e-38
14.817 4.9569998 -1.431 2.3502991e-38
14.773 4.994 -1.427 2.0841228e-38
14.733 5.007 -1.424 2.1389005e-38
14.7 5.0469999 -1.4220001 2.1020939e-38
14.662 5.086 -1.42 2.2126953e-38
14.618 5.1220002 -1.416 2.1391143e-38
14.575 5.158 -1.414 1.9275016e-38
14.54 5.197 -1.411 2.26783e-38
14.505 5.2360001 -1.409 2.0653954e-38
14.476 5.2519999 -1.4069999 2.2676138e-38
14.445 5.2919998 -1.405 2.3410826e-38
14.404 5.3280001 -1.403 2.350915e-38
14.372 5.368 -1.401 2.1115666e-38
14.336 5.4060001 -1.399 2.2862702e-38
14.301 5.4439998 -1.397 2.1761034e-38
14.265 5.4819999 -1.395 2.1757064e-38
14.24 5.4980001 -1.393 2.2584321e-38
14.198 5.533 -1.39 2.3507702e-38
14.16 5.5700002 -1.388 2.2039042e-38
14.13 5.6090002 -1.387 2.0653256e-38
14.081 5.6409998 -1.383 2.3505905e-38
14.043 5.677 -1.381 2.3506967e-38
14.019 5.7189999 -1.38 2.2398834e-38
13.985 5.73 -1.377 2.2585373e-38
13.944 5.7649999 -1.375 2.2862681e-38
13.913 5.8039999 -1.373 2.267398e-38
13.875 5.8390002 -1.3710001 2.2490295e-38
13.838 5.875 -1.369 2.2224154e-38
13.807 5.9130001 -1.367 1.9273916e-38
13.757 5.9429998 -1.364 2.2124768e-38
13.733 5.9580002 -1.362 2.2129064e-38
13.705 5.9970002 -1.3609999 2.1209665e-38
13.654 6.026 -1.357 2.1022065e-38
13.618 6.0609999 -1.3559999 1.9182438e-38
13.585 6.098 -1.354 2.2677227e-38
13.54 6.1290002 -1.351 2.2952385e-38
13.504 6.164 -1.349 2.1758866e-38
13.48 6.178 -1.348 2.1576276e-38
13.446 6.2140002 -1.346 2.2495325e-38
13.41 6.2490001 -1.344 2.0739654e-38
13.391 6.2909999 -1.344 2.1292463e-38
13.356 6.3260002 -1.342 1.9641945e-38
13.335 6.3670001 -1.342 1.7522881e-38
13.306 6.4050002 -1.341 1.8798841e-38
13.274 6.415 -1.339 1.9076886e-38
13.248 6.454 -1.3380001 1.3194437e-38
13.223 6.493 -1.337 1.3013642e-38
13.167 6.5170002 -1.3329999 1.5960644e-38
13.107 6.539 -1.329 1.770299e-38
13.054 6.5640001 -1.325 1.9368611e-38
13.005 6.5910001 -1.322 2.211899e-38
12.984 6.6059999 -1.3200001 2.2213701e-38
12.969 6.6490002 -1.321 2.349617e-38
12.937 6.6849999 -1.3200001 2.3496188e-38
12.914 6.724 -1.319 2.3498332e-38
12.907 6.7719998 -1.321 2.3495466e-38
12.884 6.8119998 -1.321 2.3408646e-38
12.847 6.8439999 -1.319 2.3499047e-38
12.838 6.8649998 -1.319 2.3496551e-38
12.818 6.9060001 -1.319 2.3404708e-38
12.784 6.9400001 -1.318 2.3495815e-38
12.76 6.9790001 -1.318 2.2023576e-38
12.747 7.0240002 -1.319 2.3494382e-38
12.716 7.059 -1.318 2.1657675e-38
12.697 7.1009998 -1.318 2.3313579e-38
12.663 7.1339998 -1.317 2.3124136e-38
12.638 7.1459999 -1.3150001 2.2294748e-38
12.641 7.1999998 -1.318 2.3035569e-38
12.603 7.2309999 -1.316 2.20225e-38
12.587 7.2750001 -1.317 2.2572434e-38
12.571 7.3179998 -1.318 2.3498332e-38
12.558 7.3639998 -1.319 2.3499412e-38
12.544 7.408 -1.3200001 2.3495094e-38
12.518 7.4200001 -1.319 2.3499419e-38
12.483 7.4520001 -1.317 2.3491146e-38
12.442 7.4809999 -1.3150001 2.3496901e-38
12.421 7.5209999 -1.3150001 2.3130275e-38
12.399 7.5609999 -1.316 2.3498346e-38
12.387 7.6069999 -1.317 2.3496182e-38
12.38 7.6300001 -1.318 2.3497609e-38
12.356 7.6690001 -1.318 2.3496188e-38
12.337 7.711 -1.318 2.349871e-38
12.321 7.7550001 -1.319 2.3499777e-38
12.295 7.7919998 -1.319 2.3503033e-38
12.267 7.829 -1.319 2.3499788e-38
12.252 7.8740001 -1.3200001 2.3501212e-38
12.235 7.8899999 -1.319 2.3499428e-38
12.213 7.9299998 -1.3200001 2.3497991e-38
12.183 7.9650002 -1.319 2.3496908e-38
12.157 8.0019999 -1.319 2.349799e-38
12.138 8.0450001 -1.3200001 2.3499073e-38
12.111 8.0819998 -1.319 2.3499428e-38
12.086 8.1199999 -1.319 2.3498345e-38
12.066 8.1339998 -1.319 2.3497257e-38
12.044 8.1739998 -1.319 2.3496537e-38
12.018 8.2119999 -1.319 2.3495463e-38
12.001 8.2559996 -1.3200001 2.2944452e-38
11.971 8.2910004 -1.3200001 2.2391634e-38
11.937 8.323 -1.319 2.3033401e-38
11.916 8.3640003 -1.319 2.3493663e-38
11.914 8.3900003 -1.321 2.3401462e-38
11.884 8.4259996 -1.3200001 2.1744115e-38
11.85 8.4569998 -1.319 2.0081721e-38
11.862 8.5220003 -1.324 1.3718754e-38
9.8240004 7.1100001 -1.066 1.6659967e-39
9.7259998 7.086 -1.056 2.4867597e-39
9.6599998 7.085 -1.05 7.4188384e-40
9.585 7.0770001 -1.043 1.0177561e-39
9.6219997 7.1269999 -1.05 1.1113726e-39
9.5880003 7.1490002 -1.048 3.7843214e-39
9.5319996 7.1539998 -1.044 2.5890138e-39
9.4399996 7.131 -1.035 6.3643557e-39
9.4029999 7.1500001 -1.033 3.7828893e-39
9.3780003 7.177 -1.0319999 1.1063532e-39
9.3409996 7.1960001 -1.03 2.2152006e-39
9.2849998 7.177 -1.025 2.0293787e-39
9.2379999 7.1859999 -1.021 3.1421848e-39
9.177 7.1859999 -1.016 2.2170097e-39
9.1890001 7.2420001 -1.021 4.6997939e-39
9.1099997 7.2259998 -1.013 3.3438751e-39
9.0089998 7.1929998 -1.003 1.965136e-38
8.9460001 7.1890001 -0.99800003 2.3506992e-38
8.9650002 7.2259998 -1.002 1.2263936e-38
8.9119997 7.2309999 -0.99800003 1.9386446e-39
8.9069996 7.2729998 -1 3.6020952e-39
8.8389997 7.2639999 -0.99400002 1.5669656e-39
8.6549997 -7.23 -0.977 1.0163099e-39
10.015 -8.3179998 -1.159 5.5497305e-40
10.053 -8.2969999 -1.16 6.4716587e-40
10.031 -8.2259998 -1.154 7.393601e-40
10.026 -8.1689997 -1.15 7.393615e-40
10.074 -8.1549997 -1.153 7.3900557e-40
10.035 -8.0979996 -1.146 8.311942e-40
10.11 -8.1059999 -1.152 8.3083687e-40
10.103 -8.0480003 -1.148 6.4752741e-40
10.083 -7.9809999 -1.142 6.4716727e-40
10.189 -8.0129995 -1.153 6.4716447e-40
10.243 -8.0030003 -1.1569999 7.3864544e-40
10.247 -7.9809999 -1.155 7.3900277e-40
10.186 -7.881 -1.1440001 6.4644981e-40
10.271 -7.8959999 -1.152 6.4716727e-40
10.371 -7.921 -1.1619999 7.3936431e-40
10.339 -7.8449998 -1.154 7.3900557e-40
10.316 -7.777 -1.148 8.31197e-40
10.466 -7.8390002 -1.165 7.393615e-40
10.48 -7.8239999 -1.165 7.3972164e-40
10.575 -7.8429999 -1.174 9.230325e-40
10.57 -7.7880001 -1.17 8.3155713e-40
10.564 -7.7329998 -1.166 8.3155573e-40
10.707 -7.7859998 -1.182 8.3155573e-40
10.687 -7.7199998 -1.176 7.3972444e-40
10.622 -7.6220002 -1.164 7.393629e-40
10.743 -7.658 -1.177 7.3864684e-40
10.65 -7.566 -1.163 7.3900277e-40
10.73 -7.573 -1.171 9.230353e-40
10.868 -7.6199999 -1.1849999 9.2411009e-40
10.869 -7.5689998 -1.182 9.2339263e-40
10.891 -7.5339999 -1.182 9.2375276e-40
10.861 -7.4629998 -1.175 9.2339823e-40
10.899 -7.4390001 -1.177 7.4008037e-40
10.989 -7.4749999 -1.187 8.3155713e-40
11.011 -7.4400001 -1.187 9.2375416e-40
11.018 -7.3940001 -1.1849999 9.2375276e-40
10.995 -7.3280001 -1.179 9.2447303e-40
11.079 -7.3340001 -1.187 8.3191446e-40
11.062 -7.2729998 -1.182 9.2375276e-40
11.108 -7.2540002 -1.1849999 1.0159512e-39
11.093 -7.2189999 -1.181 1.0159512e-39
11.117 -7.1849999 -1.181 1.0155925e-39
11.267 -7.2319999 -1.197 1.0159498e-39
11.251 -7.1719999 -1.192 8.32276e-40
11.235 -7.112 -1.188 9.2339683e-40
11.271 -7.085 -1.189 1.015947e-39
11.333 -7.0749998 -1.194 1.0155911e-39
11.419 -7.1040001 -1.2029999 1.0159498e-39
11.441 -7.0679998 -1.2029999 9.2447583e-40
11.509 -7.0599999 -1.209 1.0163071e-39
11.59 -7.0599999 -1.216 1.015947e-39
11.628 -7.033 -1.2180001 1.0163071e-39
11.645 -6.993 -1.2180001 9.2339683e-40
11.663 -6.9549999 -1.217 9.2375276e-40
11.722 -6.9650002 -1.223 8.3191727e-40
11.799 -6.96 -1.23 9.2375276e-40
11.752 -6.8829999 -1.221 1.0152309e-39
11.842 -6.8860002 -1.23 1.1074252e-39
11.862 -6.848 -1.229 1.0159498e-39
11.956 -6.8520002 -1.238 1.108144e-39
11.981 -6.8169999 -1.239 1.0163085e-39
12.005 -6.8060002 -1.24 1.1081426e-39
12.004 -6.7550001 -1.237 1.1074238e-39
12.117 -6.7690001 -1.248 9.2447163e-40
12.118 -6.7189999 -1.2460001 1.1088615e-39
12.13 -6.6760001 -1.245 1.2003383e-39
12.231 -6.6820002 -1.2539999 1.2003439e-39
12.311 -6.6760001 -1.262 1.1081482e-39
12.29 -6.6399999 -1.258 1.0163099e-39
12.369 -6.632 -1.265 1.108151e-39
12.393 -6.5949998 -1.265 1.384012e-39
12.405 -6.552 -1.2640001 1.1081496e-39
12.521 -6.5630002 -1.275 1.0163085e-39
12.624 -6.5669999 -1.285 1.1085084e-39
12.661 -6.5349998 -1.2869999 1.2918136e-39
12.673 -6.5159998 -1.2869999 1.292178e-39
12.739 -6.5 -1.2920001 1.1077839e-39
12.809 -6.4850001 -1.298 1.2003411e-39
12.812 -6.4359999 -1.296 1.2918276e-39
12.816 -6.388 -1.294 1.1996264e-39
12.848 -6.3540001 -1.296 1.1077853e-39
12.888 -6.323 -1.298 1.0152365e-39
12.898 -6.303 -1.298 1.1070664e-39
12.987 -6.296 -1.306 1.1996194e-39
13.023 -6.263 -1.308 1.1070678e-39
13.069 -6.2350001 -1.311 1.1074266e-39
13.13 -6.2129998 -1.316 1.108144e-39
13.15 -6.1719999 -1.316 1.2918206e-39
13.234 -6.1609998 -1.323 1.4762049e-39
13.283 -6.1589999 -1.3279999 1.8435469e-39
13.34 -6.1350002 -1.332 1.2010585e-39
13.437 -6.1279998 -1.341 1.6598773e-39
13.515 -6.112 -1.348 1.1996264e-39
13.588 -6.0939999 -1.354 1.1077937e-39
13.202 -5.8709998 -1.308 1.7502862e-39
13.231 -5.8340001 -1.309 6.2696265e-39
13.379 -5.8740001 -1.325 5.2576662e-39
13.569 -5.9070001 -1.344 7.0240688e-39
13.766 -5.9419999 -1.365 1.9551687e-39
13.973 -5.98 -1.386 2.6779781e-39
14.195 -6.0219998 -1.409 7.2877049e-39
14.402 -6.0580001 -1.431 6.0895541e-39
14.632 -6.1009998 -1.454 5.4445336e-39
14.849 -6.164 -1.478 3.8858455e-39
15.039 -6.1880002 -1.497 1.5565842e-38
15.123 -6.1669998 -1.5039999 1.2077897e-38
5.5110002 -2.2090001 -0.419 2.0261557e-39
5.4990001 -2.184 -0.417 7.9291619e-39
5.526 -2.175 -0.41999999 1.1621219e-38
5.507 -2.148 -0.417 1.0983143e-38
5.3530002 -2.0769999 -0.39899999 1.4495111e-38
6.9250002 -2.645 -0.574 1.1286254e-39
5.6849999 -2.1459999 -0.43399999 4.7855366e-39
5.7729998 -2.1589999 -0.44299999 1.8825199e-38
5.7329998 -2.1229999 -0.43799999 7.3785287e-39
6.0180001 -2.2090001 -0.46900001 9.0598962e-39
5.9520001 -2.174 -0.461 8.935353e-39
5.447 -1.9680001 -0.40400001 3.6003085e-39
5.7490001 -2.0580001 -0.43700001 5.1665048e-39
5.527 -1.957 -0.412 1.384037e-38
5.5440001 -1.944 -0.41299999 2.3502237e-38
5.6079998 -1.947 -0.419 6.8307176e-39
5.8829999 -2.023 -0.449 1.2736515e-38
5.8540001 -2.003 -0.44600001 9.1488661e-39
5.868 -1.987 -0.44600001 6.7392129e-39
5.8239999 -1.951 -0.44100001 1.0521369e-38
5.651 -1.873 -0.421 1.4095387e-38
7.2150002 -2.3740001 -0.59299999 1.4119933e-38
15.789 -5.1719999 -1.534 1.3293695e-38
15.807 -5.1230001 -1.534 3.1428995e-39
6.9920001 -2.2390001 -0.56599998 2.350975e-38
6.072 -1.92 -0.465 9.6912485e-39
6.0780001 -1.901 -0.465 6.280743e-39
6.0749998 -1.878 -0.463 5.4416777e-39
6.3239999 -1.9349999 -0.49000001 1.6136267e-38
5.9320002 -1.793 -0.447 1.5151421e-38
5.3210001 -1.587 -0.37900001 8.2096738e-39
5.3239999 -1.579 -0.37900001 8.6738567e-39
5.3340001 -1.564 -0.38 7.7680952e-39
5.2800002 -1.53 -0.37400001 6.7273565e-39
5.2909999 -1.515 -0.37400001 1.5385751e-38
5.3889999 -1.525 -0.384 6.1803512e-39
5.3769999 -1.503 -0.38299999 8.8669052e-39
5.4710002 -1.512 -0.39199999 9.4121434e-39
5.4889998 -1.507 -0.39399999 1.1897425e-38
5.4299998 -1.473 -0.38699999 4.3435866e-39
5.3990002 -1.446 -0.38299999 3.6971424e-39
5.4050002 -1.429 -0.38299999 5.0771664e-39
5.3920002 -1.408 -0.38100001 3.1382331e-39
5.6350002 -1.4529999 -0.40700001 9.3959739e-39
6.0939999 -1.553 -0.456 4.8874278e-39
5.927 -1.5 -0.43799999 6.2681608e-39
5.5710001 -1.39 -0.39899999 5.0775419e-39
5.5079999 -1.355 -0.39199999 8.2082193e-39
5.6719999 -1.378 -0.40900001 4.6097493e-39
5.619 -1.346 -0.403 1.2707417e-38
5.526 -1.3049999 -0.39199999 8.8417393e-39
5.5050001 -1.281 -0.38999999 1.9734757e-38
5.625 -1.291 -0.40200001 1.5767429e-38
5.777 -1.317 -0.41800001 8.654467e-39
5.7610002 -1.295 -0.41600001 1.0710508e-38
6.2210002 -1.38 -0.465 9.2026437e-39
5.816 -1.2690001 -0.421 5.7182702e-39
5.9809999 -1.286 -0.43799999 5.346594e-39
5.7090001 -1.207 -0.40900001 2.4006765e-39
5.8610001 -1.221 -0.42500001 3.3226258e-39
5.7259998 -1.183 -0.41 3.1396639e-39
5.6269999 -1.1440001 -0.39899999 8.3000393e-39
5.8699999 -1.175 -0.42500001 3.0460291e-39
6.4569998 -1.253 -0.486 2.7719673e-39
5.7480001 -1.094 -0.41100001 4.4239595e-39
5.757 -1.077 -0.41100001 1.456283e-38
5.7490001 -1.066 -0.41 6.8256632e-39
5.8520002 -1.066 -0.421 5.535681e-39
5.474 -0.97799999 -0.38 1.1070178e-38
5.454 -0.95700002 -0.37799999 1.1086404e-38
5.882 -1.015 -0.42300001 2.6001415e-39
5.415 -0.91399997 -0.373 1.1712686e-38
5.7680001 -0.95700002 -0.41 1.7235446e-38
5.382 -0.88300002 -0.36899999 9.7730128e-39
7.592 -1.2309999 -0.60299999 3.2307833e-39
5.6620002 -0.89300001 -0.398 7.1958876e-39
5.9949999 -0.92799997 -0.433 1.2721474e-38
7.362 -1.122 -0.57700002 6.9280028e-39
5.9689999 -0.88599998 -0.43000001 6.8206928e-39
7.8509998 -1.148 -0.62800002 4.79703e-39
7.5300002 -1.0880001 -0.59399998 5.0912648e-39
5.9640002 -0.83700001 -0.428 4.1556949e-39
5.9860001 -0.82099998 -0.43000001 3.0507192e-39
6.0029998 -0.80400002 -0.43200001 7.3774132e-39
6.007 -0.78600001 -0.43200001 5.0718527e-39
17.183001 -2.2409999 -1.608 2.2141441e-39
17.129 -2.1789999 -1.602 3.4155487e-39
17.108999 -2.1489999 -1.6 4.4286076e-39
17.062 -2.089 -1.594 3.9712714e-39
17.096001 -2.039 -1.597 3.2279359e-39
