# .PCD v0.7 - Point Cloud Data file format
VERSION 0.7
FIELDS x y z rgb
SIZE 4 4 4 4
TYPE F F F F
COUNT 1 1 1 1
WIDTH 1151
HEIGHT 1
VIEWPOINT 0 0 0 1 0 0 0
POINTS 1151
DATA ascii
8.1920004 -6.125 0.191 7.5445657e-39
8.1499996 -6.0539999 0.191 7.1181618e-39
32.970001 -24.233999 0.14300001 4.6137318e-39
8.3590002 -6.1079998 0.19 3.7746174e-39
33.240002 -24.033001 0.14300001 4.7055672e-39
33.396999 -23.987 0.14300001 4.4300804e-39
33.603001 -23.975 0.14300001 5.4391792e-39
33.814999 -23.966 0.142 5.8079674e-39
33.917999 -23.879 0.142 3.7879494e-39
33.880001 -23.773001 0.142 2.8674714e-39
33.932999 -23.652 0.142 2.9607461e-39
33.988998 -23.533001 0.142 4.0660118e-39
34.037998 -23.409 0.142 1.1060948e-38
34.087002 -23.285 0.14300001 1.0508861e-38
34.132 -23.158001 0.14300001 1.0785444e-38
34.155998 -23.097 0.14300001 1.0693967e-38
34.215 -22.981001 0.14300001 1.1246782e-38
34.282001 -22.870001 0.14300001 1.1155667e-38
34.327 -22.743999 0.14300001 1.1431528e-38
34.383999 -22.625999 0.14300001 1.1155673e-38
34.445999 -22.513 0.14300001 1.1340427e-38
34.487999 -22.386 0.14300001 1.1431535e-38
34.522999 -22.332001 0.14300001 1.134006e-38
34.573002 -22.209999 0.14300001 1.1339702e-38
34.638 -22.098 0.14300001 8.5723845e-39
15.836 -9.9799995 0.177 7.8441717e-39
34.810001 -21.75 0.14300001 1.1246785e-38
34.827999 -21.684 0.14300001 1.1246782e-38
34.876999 -21.563 0.14300001 1.1339341e-38
34.925999 -21.441999 0.14300001 1.1248584e-38
34.979 -21.323999 0.14300001 1.1340053e-38
35.023998 -21.201 0.14300001 1.1706687e-38
35.070999 -21.079 0.14300001 1.1524444e-38
35.125 -20.962 0.14300001 1.1064912e-38
35.131001 -20.889999 0.14300001 1.1156033e-38
35.167 -20.761999 0.14300001 1.1524448e-38
35.210999 -20.639999 0.14300001 1.189035e-38
35.262001 -20.521 0.14300001 1.1247501e-38
35.320999 -20.407 0.14300001 1.005184e-38
35.375999 -20.291 0.14300001 1.0509575e-38
35.411999 -20.164 0.14300001 1.0417029e-38
35.445 -20.108999 0.14300001 9.5908748e-39
35.519001 -20.004 0.14300001 9.2217266e-39
35.516998 -19.856001 0.14300001 8.4845175e-39
35.377998 -19.632999 0.14399999 8.1121e-39
35.488998 -19.549 0.14399999 8.1113671e-39
35.493999 -19.406 0.14399999 9.0297235e-39
35.560001 -19.298 0.14399999 8.1124545e-39
35.626999 -19.261999 0.14399999 7.9284234e-39
35.709999 -19.162001 0.14399999 8.0195414e-39
35.715 -19.02 0.14399999 7.7458468e-39
35.789001 -18.916 0.14399999 8.4841237e-39
35.880001 -18.82 0.14399999 7.6540141e-39
35.967999 -18.722 0.14399999 9.3099215e-39
35.93 -18.629999 0.14399999 9.2198923e-39
36.041 -18.545 0.14399999 9.6798041e-39
36.039001 -18.400999 0.14399999 1.0232228e-38
36.132 -18.305 0.14399999 1.0599584e-38
36.068001 -18.131001 0.14399999 1.1336056e-38
36.154999 -18.032 0.14399999 9.8645316e-39
36.278 -17.952 0.14399999 8.9479689e-39
36.34 -17.910999 0.14399999 9.4968267e-39
36.351002 -17.775 0.14399999 9.4979127e-39
36.570999 -17.74 0.14300001 8.2096948e-39
36.610001 -17.617001 0.14399999 9.8641673e-39
36.698002 -17.518 0.14300001 9.958165e-39
36.752998 -17.402 0.14300001 1.005e-38
36.742001 -17.256001 0.14399999 9.6826669e-39
36.755001 -17.191999 0.14399999 9.6819466e-39
36.904999 -17.121 0.14300001 1.1609775e-38
36.592999 -16.837 0.14399999 1.0600293e-38
36.856998 -16.818001 0.14399999 1.2075411e-38
36.867001 -16.683001 0.14399999 1.0509171e-38
36.785 -16.507 0.14399999 8.2039439e-39
36.75 -16.353001 0.14399999 7.1951856e-39
36.806999 -16.309 0.14399999 7.2884462e-39
36.886002 -16.205 0.14399999 6.6437886e-39
37.105 -16.163 0.14399999 7.2859393e-39
36.903999 -15.938 0.14399999 7.3781321e-39
36.888 -15.793 0.14399999 8.482665e-39
36.890999 -15.658 0.14399999 7.7476237e-39
36.999001 -15.635 0.14399999 7.7487041e-39
37.053001 -15.521 0.14399999 8.6659772e-39
37.194 -15.443 0.14399999 7.1040535e-39
37.444 -15.409 0.14399999 6.0909876e-39
37.528999 -15.306 0.14399999 6.5512511e-39
37.525002 -15.167 0.14399999 5.9065977e-39
37.523998 -15.03 0.14399999 5.3534352e-39
37.558998 -14.975 0.14399999 6.3643431e-39
37.432999 -14.789 0.14399999 6.2760963e-39
37.169998 -14.55 0.145 5.5421284e-39
38.325001 -14.863 0.14300001 7.6557896e-39
38.344002 -14.732 0.14300001 8.3922672e-39
38.403 -14.616 0.14300001 6.6473816e-39
38.627998 -14.563 0.14300001 7.7458202e-39
38.777 -14.55 0.142 6.6470298e-39
38.778999 -14.412 0.142 5.9991605e-39
38.914001 -14.323 0.142 5.9058817e-39
39.359001 -14.346 0.142 6.0899058e-39
39.452999 -14.24 0.141 6.6401915e-39
39.549 -14.134 0.141 5.9987724e-39
39.960999 -14.211 0.141 5.3537631e-39
40.019001 -14.09 0.141 5.2590661e-39
40.457001 -14.101 0.14 6.5480099e-39
41.02 -14.152 0.139 5.2662632e-39
41.182999 -14.064 0.139 5.2644653e-39
41.561001 -14.047 0.138 5.1733459e-39
41.905998 -14.017 0.138 5.5417669e-39
42.219002 -14.048 0.138 6.8271261e-39
42.271999 -13.918 0.138 7.1072765e-39
42.299999 -13.78 0.138 5.4484965e-39
42.323002 -13.641 0.138 6.2761075e-39
42.924999 -13.686 0.13699999 5.3566708e-39
44.018002 -13.881 0.13500001 7.4728318e-39
44.366001 -13.838 0.134 7.7504963e-39
45.108002 -13.991 0.133 7.1044137e-39
45.548 -13.971 0.133 6.1795833e-39
45.875 -13.913 0.132 5.9970081e-39
46.443001 -13.926 0.131 6.3643739e-39
46.957001 -13.919 0.131 7.4974583e-39
26.76 -7.8530002 0.163 6.2872717e-39
47.261002 -13.687 0.13 6.3664941e-39
47.758999 -13.75 0.12899999 6.2764607e-39
48.632999 -13.835 0.12800001 6.5490847e-39
49.287998 -13.854 0.127 6.0016632e-39
49.671001 -13.793 0.127 5.3595266e-39
50.189999 -13.768 0.126 5.7243617e-39
50.856998 -13.779 0.125 5.7207631e-39
51.695999 -13.831 0.124 6.183549e-39
52.279999 -13.899 0.123 5.8176433e-39
52.667999 -13.825 0.122 5.9984388e-39
53.148998 -13.773 0.121 7.101534e-39
53.863998 -13.778 0.12 5.6307395e-39
54.165001 -13.673 0.12 5.994483e-39
55.200001 -13.75 0.118 6.0891939e-39
55.631001 -13.764 0.118 5.9055243e-39
56.096001 -13.692 0.117 5.4441819e-39
56.474998 -13.597 0.116 8.936446e-39
57.120998 -13.562 0.116 6.2764565e-39
57.969002 -13.571 0.114 7.0140173e-39
58.963001 -13.608 0.113 6.37045e-39
60.150002 -13.682 0.111 7.013653e-39
61.262001 -13.834 0.109 6.7388653e-39
62.088001 -13.815 0.108 6.9221762e-39
63.384998 -13.894 0.106 7.5625149e-39
64.346001 -13.893 0.104 7.7501292e-39
66.021004 -14.037 0.102 6.9225433e-39
66.744003 -13.971 0.101 6.8314253e-39
70.169998 -14.342 0.096000001 6.9200266e-39
35.678001 -7.072 0.15000001 6.2171339e-39
65.022003 -1.3660001 0.106 2.3474168e-38
56.159 0.89700001 -0.237 7.8618575e-39
56.216 1.074 -0.237 1.6237204e-38
70.059998 1.773 -0.347 5.9105522e-39
69.722 1.983 -0.34400001 8.2078843e-39
69.075996 2.1819999 -0.33899999 7.7486999e-39
68.851997 2.2839999 -0.33700001 7.4728332e-39
68.644997 2.493 -0.336 7.9316674e-39
68.261002 2.694 -0.333 8.5777431e-39
67.771004 2.888 -0.329 6.7374416e-39
67.486 3.0880001 -0.32699999 8.3904805e-39
67.188004 3.286 -0.324 7.1055389e-39
52.243999 2.7260001 -0.207 1.3731315e-38
66.292999 3.556 -0.31799999 9.7708955e-39
65.959999 3.7460001 -0.315 7.5646884e-39
65.546997 3.9289999 -0.31200001 8.0220596e-39
65.142998 4.1110001 -0.30899999 6.7345619e-39
64.795998 4.2940001 -0.30599999 6.7360053e-39
64.420998 4.4720001 -0.303 7.9269955e-39
64.078003 4.651 -0.301 6.2746908e-39
63.820999 4.7329998 -0.29899999 1.1052286e-38
63.382999 4.901 -0.29499999 8.9440117e-39
63.105999 5.079 -0.29300001 8.9450836e-39
62.560001 5.2329998 -0.289 7.7530117e-39
62.279999 5.4070001 -0.287 6.8303533e-39
61.900002 5.5700002 -0.28400001 7.4739277e-39
61.667 5.7449999 -0.28200001 1.0236536e-38
61.368 5.8140001 -0.28 1.1614424e-38
60.988998 5.9720001 -0.27700001 8.6717478e-39
60.623001 6.1290002 -0.27500001 8.1189243e-39
60.234001 6.2810001 -0.27200001 8.4844558e-39
59.983002 6.4450002 -0.27000001 7.1026382e-39
59.346001 6.566 -0.26499999 7.3802915e-39
59.084 6.631 -0.26300001 7.7483411e-39
58.901001 6.7979999 -0.26199999 8.1199921e-39
58.651001 6.9559999 -0.25999999 7.3820697e-39
58.353001 7.1059999 -0.25799999 6.8335777e-39
58.025002 7.2519999 -0.255 8.0278105e-39
57.819 7.4109998 -0.25400001 7.5668309e-39
57.445 7.546 -0.25099999 9.9613754e-39
57.196999 7.605 -0.249 1.0419528e-38
34.217999 4.6700001 -0.066 8.8554048e-39
34.201 4.777 -0.066 1.0144323e-38
34.216 4.8889999 -0.067000002 9.8652407e-39
34.308998 5.0120001 -0.067000002 1.05088e-38
54.972 8.191 -0.23199999 7.0046874e-39
55.325001 8.4209995 -0.235 8.0184694e-39
55.098 8.4750004 -0.234 7.1890745e-39
54.943001 8.6280003 -0.233 7.5650513e-39
54.676998 8.7629995 -0.23100001 8.479072e-39
54.387001 8.8920002 -0.229 8.0227826e-39
54.099998 9.0190001 -0.227 6.4622967e-39
53.731998 9.132 -0.22400001 8.3912008e-39
53.556999 9.2749996 -0.223 9.9552727e-39
53.290001 9.316 -0.221 8.763921e-39
53.042 9.4440002 -0.219 9.2206406e-39
52.771999 9.5670004 -0.21699999 9.5879489e-39
52.567001 9.7010002 -0.21600001 8.2989982e-39
52.351002 9.8310003 -0.214 8.9468899e-39
52.125999 9.9589996 -0.212 1.0140405e-38
51.935001 10.007 -0.211 9.5893909e-39
51.698002 10.13 -0.20900001 1.1256479e-38
30.403999 6.0679998 -0.037999999 1.299738e-38
51.284 10.384 -0.207 8.3915764e-39
51.050999 10.504 -0.205 1.0599555e-38
50.826 10.624 -0.20299999 9.4075191e-39
50.578999 10.739 -0.20200001 1.1152019e-38
50.396 10.783 -0.2 1.005433e-38
50.235001 10.914 -0.199 1.2349126e-38
49.932999 11.012 -0.197 9.2256096e-39
49.726002 11.131 -0.19599999 9.5908216e-39
49.580002 11.262 -0.19499999 9.865612e-39
49.375999 11.379 -0.19400001 1.0603181e-38
49.200001 11.501 -0.192 9.2270852e-39
49.029999 11.543 -0.191 1.0605711e-38
48.808998 11.653 -0.19 1.1249646e-38
48.612999 11.768 -0.18799999 1.0969439e-38
48.431999 11.885 -0.18700001 1.2075059e-38
48.279999 12.009 -0.186 1.1429674e-38
48.058998 12.115 -0.185 1.1064144e-38
47.890999 12.152 -0.184 1.0052524e-38
47.709 12.266 -0.182 9.4075135e-39
47.509998 12.374 -0.18099999 9.0358486e-39
47.372002 12.497 -0.18000001 9.9556216e-39
47.159 12.6 -0.17900001 9.4082324e-39
46.966 12.706 -0.178 1.0329803e-38
46.733002 12.801 -0.176 1.1247473e-38
46.550999 12.83 -0.175 1.0696073e-38
46.424 12.952 -0.17399999 1.1155979e-38
46.301998 13.075 -0.17299999 1.133893e-38
46.125999 13.182 -0.17200001 1.0051421e-38
45.882999 13.269 -0.171 1.1065568e-38
45.723999 13.379 -0.17 9.8666896e-39
45.514999 13.473 -0.168 9.4107533e-39
45.367001 13.507 -0.167 9.2295795e-39
45.207001 13.614 -0.16599999 7.9341785e-39
44.980999 13.7 -0.16500001 9.5908132e-39
44.723 13.776 -0.163 9.5015225e-39
30.440001 9.4899998 -0.045000002 6.6266017e-39
30.757999 9.6940002 -0.048 6.3697423e-39
44.127998 14.049 -0.15899999 9.8623596e-39
43.82 14.027 -0.15700001 7.74906e-39
43.688999 14.137 -0.156 7.2898797e-39
43.626999 14.268 -0.156 8.1178369e-39
43.480999 14.372 -0.155 9.3131543e-39
43.279999 14.457 -0.154 8.4841111e-39
43.162998 14.568 -0.153 7.9341701e-39
43.069 14.688 -0.153 7.3849718e-39
42.880001 14.698 -0.15099999 1.0876151e-38
42.757999 14.807 -0.15099999 8.7603421e-39
42.596001 14.901 -0.15000001 8.5741529e-39
42.451 15 -0.149 9.2216705e-39
42.334999 15.109 -0.148 9.4950358e-39
42.199001 15.21 -0.148 7.9330869e-39
42.117001 15.256 -0.147 6.6441558e-39
41.990002 15.359 -0.147 9.0340535e-39
21.371 7.9829998 0.026000001 1.1071771e-38
21.25 8.0139999 0.027000001 1.0156295e-38
41.457001 15.758 -0.14399999 1.403935e-38
41.279999 15.839 -0.14300001 8.3033142e-39
41.194 15.88 -0.142 9.6833563e-39
41.095001 15.991 -0.142 1.235056e-38
40.966999 16.089001 -0.141 1.1429315e-38
40.841999 16.188 -0.14 8.8546985e-39
40.688 16.275999 -0.14 9.3138774e-39
40.535 16.363001 -0.139 1.2631096e-38
40.374001 16.445 -0.138 1.0141844e-38
40.319 16.497 -0.138 1.0605685e-38
40.293999 16.635 -0.138 1.1701602e-38
40.179001 16.735001 -0.13699999 1.0320478e-38
40.104 16.851999 -0.13699999 9.311362e-39
39.990002 16.952 -0.13699999 9.1240995e-39
39.939999 17.079 -0.13699999 7.3792223e-39
39.819 17.174999 -0.13600001 6.5530602e-39
39.713001 17.204 -0.13500001 6.4565373e-39
39.671001 17.334 -0.13500001 9.4986344e-39
39.619999 17.459999 -0.13500001 8.3901372e-39
39.576 17.589001 -0.13600001 8.7582023e-39
39.500999 17.705 -0.13500001 1.0595613e-38
39.408001 17.812 -0.13500001 9.7726849e-39
39.348999 17.860001 -0.13500001 1.0051089e-38
39.252998 17.965 -0.134 8.4841377e-39
39.195999 18.089001 -0.134 1.0413384e-38
39.155998 18.219 -0.13500001 6.7349221e-39
39.192001 18.386 -0.13500001 7.01439e-39
39.050999 18.469999 -0.13500001 5.5414866e-39
38.979 18.586 -0.13500001 4.9872493e-39
38.939999 18.643 -0.134 4.8025035e-39
38.846001 18.747 -0.134 4.7099477e-39
38.839001 18.895 -0.13500001 4.3415141e-39
38.763 19.009001 -0.134 4.248601e-39
38.748001 19.153 -0.13500001 4.0645685e-39
38.696999 19.278999 -0.13500001 4.0638412e-39
38.640999 19.403 -0.13500001 3.8783766e-39
38.666 19.490999 -0.13500001 3.8776479e-39
38.712002 19.667 -0.13600001 3.5070619e-39
38.650002 19.789 -0.13600001 1.6624248e-39
38.66 19.947001 -0.13699999 2.4892974e-39
38.550999 20.045 -0.13699999 2.2134308e-39
38.417 20.129 -0.13600001 1.5713026e-39
38.485001 20.240999 -0.13699999 1.5705823e-39
38.458 20.382 -0.13699999 1.3869099e-39
38.405998 20.509001 -0.13699999 2.3978165e-39
38.389 20.655001 -0.138 1.7549722e-39
38.283001 20.754 -0.13699999 1.4765804e-39
38.189999 20.858 -0.13699999 1.3847407e-39
38.172001 21.004 -0.138 1.4765748e-39
38.221001 21.110001 -0.138 1.6598871e-39
38.216 21.264 -0.139 1.5684117e-39
38.194 21.409 -0.139 1.5684089e-39
38.262001 21.605 -0.141 1.7517254e-39
38.188999 21.723 -0.14 1.8449916e-39
38.115002 21.839001 -0.14 1.9386348e-39
38.104 21.992001 -0.141 1.4787468e-39
38.152 22.1 -0.142 1.4783895e-39
38.146999 22.257 -0.142 1.6613332e-39
38.155998 22.423 -0.14300001 1.6602612e-39
38.185001 22.601999 -0.14399999 1.7531701e-39
38.205002 22.775999 -0.145 1.5702222e-39
38.25 22.966 -0.146 2.6783732e-39
12.616 7.6490002 0.090000004 2.8587624e-39
12.672 7.711 0.089000002 2.9534775e-39
12.735 7.803 0.088 2.0412827e-39
12.738 7.8600001 0.088 3.8837786e-39
12.662 7.869 0.088 5.1683727e-39
12.574 7.869 0.089000002 5.2620047e-39
12.479 7.8639998 0.090000004 4.8903481e-39
12.437 7.8920002 0.090000004 4.7055925e-39
12.399 7.8959999 0.090000004 4.6112515e-39
12.351 7.9200001 0.090000004 2.0333597e-39
12.326 7.9590001 0.090000004 3.5081185e-39
12.277 7.9819999 0.090999998 4.3339331e-39
12.227 8.0039997 0.090999998 2.5915824e-39
12.188 8.0340004 0.090999998 4.7960127e-39
12.192 8.0640001 0.090999998 2.9560629e-39
12.152 8.092 0.090999998 2.7720164e-39
12.133 8.1350002 0.090999998 2.3132061e-39
12.101 8.1680002 0.090999998 2.8678106e-39
12.08 8.21 0.090999998 3.6975712e-39
12.081 8.2659998 0.090999998 4.801737e-39
12.06 8.3070002 0.090999998 3.6003211e-39
12.053 8.3299999 0.090000004 3.3266209e-39
12.024 8.3660002 0.090000004 5.8122721e-39
12.055 8.4440002 0.090000004 4.5215305e-39
12.059 8.5030003 0.090000004 6.544061e-39
12.015 8.5290003 0.090000004 4.34613e-39
11.862 8.4770002 0.090999998 6.5454918e-39
12.036 8.6289997 0.089000002 5.7060425e-39
12.15 8.7690001 0.088 3.8696871e-39
12.328 8.9560003 0.086000003 8.5835823e-39
12.496 9.1370001 0.083999999 8.1175833e-39
12.648 9.309 0.082000002 5.6301033e-39
53.839001 39.780998 -0.322 3.8877344e-39
42.203999 33.505001 -0.219 1.1095944e-39
27.426001 -23.698999 -0.079999998 1.3854484e-39
27.580999 -23.757999 -0.081 1.7545854e-39
27.587999 -23.613001 -0.079999998 1.9396941e-39
27.579 -23.455999 -0.079999998 2.2144846e-39
27.813 -23.504999 -0.081 2.2144846e-39
27.764999 -23.313999 -0.079999998 3.6881671e-39
28.596001 -23.861 -0.088 4.0590992e-39
29.125 -24.148001 -0.092 3.5988441e-39
28.896 -23.881001 -0.090000004 3.0464032e-39
28.836 -23.68 -0.088 2.8630966e-39
29.209999 -23.833 -0.090999998 6.8206451e-39
29.159 -23.639 -0.090000004 6.5465708e-39
29.225 -23.541 -0.090000004 7.0053881e-39
29.441 -23.563 -0.090999998 7.0053923e-39
29.486 -23.448 -0.090999998 5.900142e-39
29.674999 -23.521999 -0.093000002 6.3593222e-39
29.972 -23.605 -0.094999999 6.8188529e-39
29.944 -23.43 -0.093999997 6.8188486e-39
30.145 -23.436001 -0.094999999 7.4645782e-39
30.305 -23.408001 -0.096000001 8.016701e-39
30.437 -23.358 -0.097000003 9.4212252e-39
30.468 -23.23 -0.096000001 3.9651716e-39
30.488001 -23.17 -0.096000001 7.6508052e-39
8.1490002 -6.0879998 0.126 9.6603835e-39
8.158 -6.0560002 0.126 6.0179113e-39
30.719 -22.742001 -0.094999999 7.2812841e-39
30.778999 -22.636999 -0.094999999 9.4028809e-39
8.3889999 -6.1259999 0.124 1.8428336e-39
30.885 -22.490999 -0.094999999 1.0600695e-38
30.961 -22.398001 -0.094999999 1.0509584e-38
31.02 -22.292 -0.094999999 1.0785808e-38
31.080999 -22.188999 -0.094999999 1.0235869e-38
31.143 -22.084999 -0.094999999 1.1797075e-38
31.204 -21.982 -0.094999999 1.1062388e-38
31.229 -21.926001 -0.094999999 1.0602852e-38
31.283001 -21.816999 -0.094999999 1.0879086e-38
31.341 -21.712 -0.094999999 1.0510312e-38
31.403999 -21.610001 -0.094999999 1.0603574e-38
31.454 -21.499001 -0.093999997 1.1062744e-38
31.533001 -21.408001 -0.094999999 1.0970205e-38
31.546 -21.344999 -0.093999997 1.0878728e-38
31.607 -21.240999 -0.093999997 1.0971639e-38
31.673 -21.142 -0.093999997 1.0695769e-38
31.743 -21.044001 -0.093999997 1.1063115e-38
31.797001 -20.937 -0.093999997 1.0971992e-38
31.861 -20.836 -0.093999997 1.1063462e-38
31.92 -20.731001 -0.093999997 1.115495e-38
31.934999 -20.67 -0.093999997 1.1245712e-38
31.975 -20.552999 -0.093999997 1.0880175e-38
15.731 -9.9569998 0.059 1.0057617e-38
32.150002 -20.24 -0.093999997 1.1339693e-38
32.226002 -20.146999 -0.093999997 1.14301e-38
32.278999 -20.039 -0.093999997 1.0696841e-38
32.313 -19.99 -0.093999997 1.0877281e-38
32.355999 -19.875999 -0.093000002 1.1245337e-38
32.412998 -19.771 -0.093000002 1.0511014e-38
32.441002 -19.649 -0.093000002 1.0601772e-38
32.537998 -19.568001 -0.093000002 1.0601403e-38
32.564999 -19.445999 -0.093000002 1.041702e-38
32.625999 -19.343 -0.093000002 1.0322661e-38
32.615002 -19.267 -0.093000002 1.0323369e-38
32.693001 -19.174999 -0.093000002 9.3124663e-39
32.777 -19.086 -0.093000002 8.9404397e-39
32.769001 -18.944 -0.092 8.6649291e-39
32.807999 -18.829 -0.092 9.5829141e-39
32.938 -18.767 -0.093000002 7.8358901e-39
32.924 -18.690001 -0.093000002 8.3915595e-39
32.969002 -18.579 -0.092 1.0133208e-38
33.042 -18.483999 -0.093000002 9.0308319e-39
33.147999 -18.406 -0.093000002 8.3015429e-39
33.167 -18.281 -0.093000002 9.4042653e-39
33.219002 -18.174 -0.093000002 9.406073e-39
33.224998 -18.041 -0.092 8.5752417e-39
33.223 -17.973 -0.092 7.2866763e-39
33.287998 -17.872999 -0.092 8.3033254e-39
33.384998 -17.790001 -0.092 9.3120697e-39
33.478001 -17.705 -0.093000002 1.0321903e-38
33.543999 -17.605 -0.093000002 9.77235e-39
33.617001 -17.509001 -0.093000002 1.0234393e-38
33.702 -17.419001 -0.093000002 9.4986204e-39
33.715 -17.358999 -0.093000002 9.4946897e-39
33.738998 -17.237 -0.093000002 1.1332836e-38
33.785999 -17.128 -0.093000002 1.0509189e-38
33.896 -17.049999 -0.093000002 9.1327301e-39
33.926998 -16.931999 -0.093000002 9.4968393e-39
34.046001 -16.858 -0.093999997 1.2162948e-38
34.098999 -16.750999 -0.093999997 1.060245e-38
34.132 -16.701 -0.093999997 9.5011469e-39
34.146999 -16.575001 -0.093000002 1.2255151e-38
34.244999 -16.490999 -0.093999997 1.078792e-38
34.237999 -16.354 -0.093000002 1.0231889e-38
34.227001 -16.218 -0.093000002 1.0417698e-38
34.436001 -16.184 -0.093999997 1.2164736e-38
34.473999 -16.136 -0.093999997 1.0600292e-38
34.500999 -16.017 -0.093999997 8.4848426e-39
34.414001 -15.845 -0.093000002 9.9552881e-39
34.417 -15.716 -0.092 1.1699446e-38
34.506001 -15.625 -0.093000002 1.0507736e-38
34.429001 -15.46 -0.092 9.0343884e-39
34.330002 -15.286 -0.090000004 7.6550651e-39
34.396999 -15.252 -0.090999998 7.3784852e-39
34.366001 -15.109 -0.090000004 8.2961255e-39
34.518002 -15.046 -0.090999998 8.3886799e-39
34.667999 -14.982 -0.092 7.9280731e-39
34.823002 -14.92 -0.093000002 7.9298597e-39
34.833 -14.795 -0.092 7.5639499e-39
34.804001 -14.654 -0.092 7.3810132e-39
34.595001 -14.501 -0.090000004 7.564687e-39
34.762001 -14.443 -0.090999998 8.2071543e-39
34.844002 -14.349 -0.090999998 8.1128034e-39
34.877998 -14.235 -0.090999998 7.5650275e-39
34.971001 -14.145 -0.090999998 8.3015247e-39
34.879002 -13.981 -0.090000004 7.4706794e-39
35.102001 -14.006 -0.092 7.3784838e-39
35.233002 -13.93 -0.093000002 6.64093e-39
35.338001 -13.844 -0.093000002 5.9995136e-39
35.543999 -13.796 -0.094999999 7.289151e-39
35.584999 -13.683 -0.094999999 7.8419633e-39
35.750999 -13.618 -0.096000001 7.3806264e-39
35.783001 -13.502 -0.096000001 6.7374178e-39
36.044998 -13.536 -0.097999997 6.8292589e-39
36.146 -13.445 -0.097999997 6.9225307e-39
36.355999 -13.393 -0.1 6.0920666e-39
36.889 -13.458 -0.104 6.4568933e-39
37.280998 -13.469 -0.107 6.9189448e-39
37.518002 -13.422 -0.108 5.5399802e-39
37.560001 -13.304 -0.108 6.0009528e-39
37.525002 -13.225 -0.108 6.0917065e-39
37.810001 -13.192 -0.11 7.1026186e-39
38.148998 -13.177 -0.112 8.1160432e-39
38.390999 -13.126 -0.114 7.3806474e-39
38.551998 -13.045 -0.115 7.9312947e-39
38.743999 -12.975 -0.116 8.853258e-39
38.619999 -12.799 -0.115 8.6677863e-39
39 -12.857 -0.118 7.6540029e-39
39.706001 -12.952 -0.123 7.5643184e-39
39.884998 -12.872 -0.125 7.1944555e-39
40.348 -12.882 -0.12800001 6.8281827e-39
40.417 -12.764 -0.12800001 6.5512315e-39
40.466999 -12.64 -0.12800001 6.0916897e-39
40.681999 -12.567 -0.13 5.628213e-39
41.061001 -12.614 -0.133 6.0002213e-39
41.451 -12.592 -0.13600001 7.1069304e-39
41.738998 -12.536 -0.138 5.5464388e-39
26.648001 -7.9029999 -0.013 1.2254452e-38
26.658001 -7.8150001 -0.013 5.2659311e-39
43.424 -12.599 -0.15099999 7.014376e-39
41.785999 -12.051 -0.13699999 6.8292729e-39
45.083 -12.851 -0.164 7.6565168e-39
45.396 -12.786 -0.16599999 7.1962435e-39
45.646 -12.702 -0.168 7.7469076e-39
45.814999 -12.594 -0.169 7.8405424e-39
46.435001 -12.608 -0.17299999 7.476066e-39
46.868999 -12.568 -0.177 8.1178425e-39
47.942001 -12.776 -0.185 8.8535999e-39
48.103001 -12.657 -0.186 7.750139e-39
48.861 -12.693 -0.192 1.3076959e-38
49.292 -12.64 -0.19499999 7.3802747e-39
49.993999 -12.653 -0.20100001 7.2855735e-39
51.887001 -12.96 -0.21600001 7.2823365e-39
52.306 -12.89 -0.219 6.7284663e-39
52.960999 -12.964 -0.22400001 7.6511289e-39
53.265999 -12.862 -0.226 7.5650387e-39
53.748001 -12.799 -0.23 6.6502556e-39
54.257 -12.741 -0.233 6.8289114e-39
54.817001 -12.691 -0.23800001 8.4808657e-39
55.882 -12.753 -0.24600001 6.2750215e-39
56.68 -12.749 -0.252 7.0086265e-39
57.153 -12.761 -0.25600001 6.5530377e-39
58.07 -12.775 -0.26300001 6.0927841e-39
58.924999 -12.769 -0.26899999 7.0122278e-39
59.785999 -12.76 -0.27599999 6.3679304e-39
60.624001 -12.74 -0.28299999 6.2789732e-39
35.605999 -7.1799998 -0.079999998 6.5519742e-39
35.647999 -7.072 -0.081 8.2356791e-39
67.773003 -13.248 -0.33899999 7.7530173e-39
69.861 -13.429 -0.35499999 7.197338e-39
70.327003 -13.29 -0.35800001 6.9232608e-39
69.777 -11.377 -0.352 1.0142904e-38
68.985001 -11.026 -0.345 1.0330175e-38
69.056 -10.815 -0.345 1.0793665e-38
67.765999 -10.394 -0.33500001 9.7795275e-39
69.121002 -10.38 -0.345 8.854365e-39
69.774002 -6.1420002 -0.34599999 1.7974622e-38
69.982002 -2.9579999 -0.34599999 2.349939e-38
69.750999 -2.7290001 -0.34400001 2.3508416e-38
69.889 -2.075 -0.345 2.3504074e-38
70.179001 -1.863 -0.34799999 2.119593e-38
69.963997 -1.747 -0.34599999 1.4580208e-38
64.987 -1.4170001 -0.30700001 2.3491124e-38
69.739998 -1.303 -0.34400001 7.3915299e-39
69.248001 -1.076 -0.34 6.3737304e-39
68.838997 -0.85299999 -0.33700001 6.3711856e-39
60.384998 -0.366 -0.27000001 2.1394082e-38
61.744999 0.45100001 -0.66000003 1.7976344e-38
61.935001 0.64700001 -0.66299999 1.6409382e-38
62.139999 0.84500003 -0.66600001 1.4660902e-38
62.353001 1.044 -0.66900003 2.3509862e-38
56.187 1.026 -0.58200002 1.7523275e-38
62.220001 1.335 -0.667 1.1621656e-38
61.991001 1.525 -0.66399997 1.0240173e-38
62 1.72 -0.66399997 1.7324103e-38
62.095001 1.918 -0.66500002 1.3550933e-38
63.488998 2.161 -0.685 1.1438351e-38
63.25 2.352 -0.68199998 1.0883367e-38
66.566002 2.5810001 -0.72799999 1.1068105e-38
66.227997 2.776 -0.72399998 9.5893853e-39
65.918999 2.971 -0.71899998 7.9363379e-39
65.564003 3.161 -0.71499997 9.7701542e-39
52.219002 2.677 -0.52700001 1.9175221e-38
52.234001 2.842 -0.528 1.2257275e-38
64.322998 3.7090001 -0.69800001 1.1249244e-38
63.966 3.789 -0.69300002 1.0607472e-38
63.650002 3.971 -0.68800002 8.9443634e-39
63.348 4.152 -0.68400002 9.4042737e-39
63.007999 4.3280001 -0.68000001 1.0328029e-38
62.787998 4.5110002 -0.67699999 1.0415891e-38
62.566002 4.6929998 -0.67400002 1.0044245e-38
62.223999 4.7649999 -0.66900003 9.8594954e-39
61.914001 4.9369998 -0.66500002 1.0141112e-38
61.651001 5.1110001 -0.662 1.0232605e-38
61.279999 5.2740002 -0.65700001 7.9330967e-39
60.998001 5.4419999 -0.653 9.5893727e-39
60.675999 5.6059999 -0.64899999 2.1566911e-38
48.778 4.6560001 -0.48100001 8.5752319e-39
59.848999 5.8140001 -0.63700002 8.6677933e-39
59.568001 5.9749999 -0.634 8.4830363e-39
59.137001 6.119 -0.62800002 7.6579392e-39
58.831001 6.2750001 -0.62400001 7.1976897e-39
58.398998 6.414 -0.61799997 6.8303393e-39
58.175999 6.5739999 -0.61500001 7.2884714e-39
57.827999 6.7189999 -0.611 7.1062031e-39
57.589001 6.783 -0.60699999 6.1857028e-39
57.382 6.941 -0.60500002 8.5816877e-39
57.013 7.0780001 -0.60000002 7.110159e-39
56.557999 7.2020001 -0.59399998 6.0002269e-39
56.194 7.335 -0.58899999 4.8953395e-39
56.066002 7.4970002 -0.58700001 1.0509203e-38
34.146 4.665 -0.278 6.8268024e-39
34.216 4.7290001 -0.27900001 7.4801158e-39
34.148998 4.8299999 -0.278 1.1419994e-38
34.27 4.9569998 -0.28 6.6417049e-39
34.285999 5.0689998 -0.28 7.9255465e-39
54.388 8.2309999 -0.56599998 6.8314253e-39
54.047001 8.3529997 -0.56099999 6.7345493e-39
53.791 8.3999996 -0.55800003 7.1029857e-39
53.674 8.5539999 -0.55599999 1.0230434e-38
53.272999 8.6619997 -0.551 7.3802901e-39
53.110001 8.8070002 -0.54900002 8.1139021e-39
52.890999 8.941 -0.546 9.2148462e-39
52.608002 9.0629997 -0.54299998 7.193738e-39
45.300999 8.0209999 -0.43900001 2.3498744e-38
52.039001 9.3870001 -0.53600001 1.2710698e-38
51.828999 9.5170002 -0.53299999 8.7657427e-39
51.640999 9.6499996 -0.53100002 1.152008e-38
51.424 9.7770004 -0.528 9.5879503e-39
51.181 9.8970003 -0.52499998 1.0048205e-38
50.916 10.012 -0.52200001 9.1450027e-39
30.4 6.0159998 -0.229 1.1914219e-38
50.431 10.163 -0.51599997 9.0365702e-39
50.297001 10.301 -0.514 1.1612657e-38
50.118 10.428 -0.51200002 1.2066431e-38
49.858002 10.537 -0.509 8.9483417e-39
49.604 10.646 -0.50599998 9.5000735e-39
49.493 10.704 -0.50400001 1.2990541e-38
49.251999 10.814 -0.50099999 9.8641757e-39
49.095001 10.941 -0.5 1.0419125e-38
48.91 11.061 -0.49700001 1.1243489e-38
48.738998 11.183 -0.495 1.0143271e-38
48.537998 11.298 -0.493 1.1059126e-38
48.348 11.414 -0.491 1.0510987e-38
48.173 11.452 -0.48899999 1.299341e-38
47.956001 11.56 -0.486 9.8649016e-39
47.754002 11.67 -0.484 1.3084524e-38
47.583 11.787 -0.48199999 9.0405233e-39
47.476002 11.919 -0.48100001 5.7283161e-39
47.233002 12.015 -0.47799999 8.5777529e-39
47.063999 12.13 -0.47600001 1.0600663e-38
46.889999 12.163 -0.47299999 9.8641701e-39
46.834 12.306 -0.47299999 1.39078e-38
46.617001 12.406 -0.47099999 1.0418433e-38
46.459999 12.52 -0.46900001 1.1332096e-38
46.279999 12.628 -0.46700001 1.1057327e-38
46.053001 12.721 -0.46399999 9.3145794e-39
45.886002 12.83 -0.46200001 1.1150963e-38
45.694 12.854 -0.46000001 9.9592426e-39
45.473 12.946 -0.45699999 1.1336422e-38
45.279999 13.045 -0.45500001 1.0694281e-38
45.119999 13.152 -0.45300001 8.119653e-39
44.959 13.259 -0.45199999 7.7483453e-39
44.77 13.356 -0.449 1.0690681e-38
44.577 13.451 -0.447 8.3904791e-39
44.372002 13.465 -0.44400001 8.2964871e-39
44.193001 13.563 -0.442 8.5712691e-39
30.372999 9.4169998 -0.23999999 1.0506661e-38
30.639 9.6049995 -0.245 8.29905e-39
43.597 13.83 -0.43599999 7.4692613e-39
43.382 13.912 -0.433 8.7596134e-39
43.125999 13.904 -0.43000001 1.1611189e-38
43.076 14.038 -0.43000001 1.0046409e-38
42.932999 14.141 -0.428 1.0135717e-38
42.769001 14.236 -0.426 1.0780729e-38
42.569 14.318 -0.42399999 1.0417697e-38
42.439999 14.423 -0.42300001 1.0416258e-38
42.265999 14.512 -0.421 1.004748e-38
42.16 14.549 -0.41999999 9.311718e-39
42.064999 14.665 -0.419 1.0877225e-38
41.938 14.768 -0.41800001 8.6699443e-39
41.797001 14.866 -0.41600001 1.3544051e-38
41.68 14.972 -0.41499999 1.1706628e-38
41.462002 15.041 -0.41299999 8.763942e-39
41.369999 15.155 -0.412 8.7610791e-39
41.264999 15.19 -0.41100001 6.650662e-39
21.627001 8.0249996 -0.118 1.13383e-38
21.386999 8.0120001 -0.115 7.9511847e-39
21.113001 7.9850001 -0.111 1.403935e-38
40.845001 15.621 -0.40700001 1.1889243e-38
40.688999 15.708 -0.40599999 1.1062722e-38
40.556 15.803 -0.405 9.680132e-39
40.483002 15.848 -0.40400001 1.060172e-38
40.388 15.957 -0.403 1.0140028e-38
40.231998 16.042 -0.40200001 1.0970516e-38
40.113998 16.141001 -0.40099999 9.6826585e-39
40.042999 16.259001 -0.40000001 1.27154e-38
39.955002 16.368999 -0.40000001 1.0414452e-38
39.866001 16.406 -0.39899999 9.7698067e-39
39.764999 16.51 -0.398 7.7501614e-39
39.681 16.622 -0.398 1.2435914e-38
39.59 16.73 -0.39700001 9.8598569e-39
39.499001 16.837999 -0.396 9.8645288e-39
39.412998 16.948 -0.396 1.2985865e-38
39.310001 17.049999 -0.39500001 9.8616576e-39
39.223999 17.086 -0.39399999 8.9440117e-39
39.195999 17.221001 -0.39500001 8.1171335e-39
39.105 17.327999 -0.39399999 8.7603407e-39
39.009998 17.431999 -0.39300001 1.0323699e-38
38.937 17.547001 -0.39300001 8.0368278e-39
38.855 17.656 -0.39300001 1.1264479e-38
38.849998 17.802 -0.39300001 9.8866161e-39
38.771 17.839001 -0.39300001 8.1327705e-39
38.729 17.968 -0.39300001 5.7334687e-39
17.968 8.3889999 -0.071999997 9.1273239e-39
17.797001 8.3769999 -0.07 6.738899e-39
17.674999 8.3879995 -0.068999998 5.7258457e-39
17.555 8.3979998 -0.067000002 5.3574177e-39
17.462 8.3879995 -0.066 5.35671e-39
17.398001 8.4239998 -0.064999998 5.0812329e-39
17.305 8.4460001 -0.064000003 4.8053929e-39
17.233999 8.4779997 -0.064000003 4.5309655e-39
17.187 8.5229998 -0.063000001 4.5284487e-39
17.121 8.5570002 -0.063000001 4.1596578e-39
17.094 8.6110001 -0.063000001 3.7919669e-39
17.087999 8.6409998 -0.063000001 3.8830863e-39
17.089001 8.7089996 -0.063000001 3.5121556e-39
17.069 8.7670002 -0.063000001 2.5919958e-39
17.073 8.8369999 -0.064000003 2.497261e-39
17.059 8.8979998 -0.064000003 2.5858399e-39
17.063 8.9680004 -0.064999998 2.6754851e-39
17.058001 9.0340004 -0.064999998 2.7658829e-39
17.080999 9.0799999 -0.066 2.6736803e-39
17.094 9.1569996 -0.066 2.6740376e-39
17.077999 9.217 -0.066 2.6733187e-39
17.108999 9.3030005 -0.067000002 2.3978108e-39
17.104 9.3699999 -0.068000004 2.3052551e-39
17.099001 9.4379997 -0.068000004 2.3056152e-39
17.094999 9.5059996 -0.068999998 2.580407e-39
17.113001 9.5509996 -0.068999998 2.5807658e-39
17.113001 9.6219997 -0.07 2.5804098e-39
17.125999 9.6999998 -0.07 2.3049062e-39
17.134001 9.776 -0.071000002 1.7535373e-39
17.117001 9.8380003 -0.071000002 1.3861967e-39
17.132 9.9180002 -0.071999997 1.3862023e-39
17.127001 9.9870005 -0.071999997 1.6631493e-39
17.165001 10.046 -0.072999999 1.5734732e-39
17.18 10.127 -0.074000001 2.035536e-39
17.211 10.219 -0.075000003 2.2213593e-39
12.485 7.4580002 0.0020000001 1.9361012e-39
12.433 7.4790001 0.0020000001 3.5966875e-39
12.409 7.5180001 0.0020000001 3.2300981e-39
12.37 7.5209999 0.003 3.3255447e-39
12.322 7.5450001 0.003 3.5099374e-39
12.283 7.5739999 0.003 3.3251832e-39
12.242 7.6020002 0.0040000002 3.2319057e-39
12.2 7.6290002 0.0040000002 2.9549629e-39
12.161 7.658 0.0040000002 2.6791019e-39
12.113 7.6810002 0.0049999999 2.4028793e-39
12.096 7.697 0.0049999999 2.6776698e-39
12.061 7.7280002 0.0049999999 2.6783844e-39
12.024 7.757 0.0049999999 2.6783774e-39
11.989 7.7880001 0.0049999999 3.7818481e-39
11.961 7.8239999 0.0049999999 3.2293932e-39
11.928 7.8559999 0.0049999999 3.4130656e-39
11.918 7.8759999 0.0049999999 3.1379192e-39
11.904 7.921 0.0049999999 3.3215888e-39
11.866 7.9489999 0.0049999999 3.3212287e-39
11.835 7.9819999 0.0049999999 3.1368458e-39
11.803 8.0150003 0.0060000001 2.862417e-39
11.784 8.0559998 0.0049999999 2.6780285e-39
11.747 8.085 0.0060000001 2.7702227e-39
11.738 8.1059999 0.0060000001 2.6780341e-39
11.714 8.1440001 0.0060000001 2.5865559e-39
11.693 8.184 0.0060000001 2.4954435e-39
11.663 8.2180004 0.0060000001 2.4961582e-39
11.655 8.2670002 0.0049999999 2.6801977e-39
11.632 8.3059998 0.0049999999 2.7734765e-39
11.731 8.4320002 0.003 4.1657324e-39
11.868 8.5600004 0 5.8231714e-39
11.999 8.7130003 -0.0020000001 3.054734e-39
12.169 8.8940001 -0.0060000001 4.5266214e-39
12.329 9.0719995 -0.0089999996 3.5110542e-39
12.467 9.2340002 -0.012 3.8787325e-39
12.733 9.4940004 -0.017000001 5.5396523e-39
42.061001 33.332001 -0.54699999 3.5948883e-39
17.190001 14.048 -0.106 3.7094893e-40
17.143 14.055 -0.105 3.6986993e-40
17.077999 14.091 -0.105 5.5390386e-40
17.018 14.131 -0.105 7.3865385e-40
26.419001 -22.747999 -0.28299999 1.8453461e-39
26.500999 -22.674 -0.28299999 2.1215673e-39
26.386999 -22.504999 -0.28099999 1.8453475e-39
26.388 -22.363001 -0.27900001 2.1215771e-39
26.707001 -22.489 -0.28400001 2.0279381e-39
26.881001 -22.490999 -0.28600001 1.8435469e-39
27.073 -22.507999 -0.28799999 2.3027313e-39
27.228001 -22.492001 -0.28999999 2.8562723e-39
27.337 -22.438 -0.28999999 3.317249e-39
27.332001 -22.363001 -0.289 3.4108824e-39
27.382 -22.26 -0.289 4.8827727e-39
27.448999 -22.172001 -0.289 5.2522698e-39
27.539 -22.101 -0.289 6.6337581e-39
27.631001 -22.034 -0.28999999 6.6351945e-39
27.679001 -21.929001 -0.289 7.0025463e-39
27.735001 -21.903 -0.28999999 7.279845e-39
27.819 -21.827999 -0.28999999 7.7401043e-39
27.903999 -21.753 -0.28999999 8.2932795e-39
27.958 -21.653999 -0.28999999 8.1121308e-39
28.052 -21.587 -0.29100001 1.2994168e-38
28.112 -21.493 -0.28999999 5.7200625e-39
28.174999 -21.400999 -0.28999999 5.8987407e-39
28.205 -21.354 -0.28999999 7.4678488e-39
8.1289997 -6.0970001 0.063000001 1.5673397e-39
8.2969999 -6.1820002 0.061000001 9.5080441e-39
8.1759996 -6.053 0.063000001 3.3258712e-39
28.548 -20.917 -0.29100001 9.8624101e-39
8.6160002 -6.2729998 0.056000002 1.8428322e-39
8.4189997 -6.0900002 0.059999999 3.4162816e-39
28.804001 -20.621 -0.29100001 1.014296e-38
28.905001 -20.556 -0.292 1.0419184e-38
28.955 -20.455 -0.29100001 1.087872e-38
29.037001 -20.375999 -0.292 1.1338978e-38
29.059 -20.323999 -0.292 1.0696145e-38
29.143999 -20.247 -0.292 1.05103e-38
29.207001 -20.156 -0.292 1.0877648e-38
29.278999 -20.069 -0.292 1.0694329e-38
29.333 -19.972 -0.292 1.0695043e-38
29.400999 -19.882999 -0.292 1.0511026e-38
29.459999 -19.788 -0.292 1.0786163e-38
29.497999 -19.746 -0.292 1.0877638e-38
29.563 -19.656 -0.292 1.0602855e-38
29.628 -19.565001 -0.292 1.0692891e-38
29.679001 -19.465 -0.292 1.0785089e-38
29.761999 -19.386 -0.292 1.0878372e-38
29.802999 -19.278999 -0.292 1.041811e-38
29.879999 -19.195999 -0.292 1.0602853e-38
29.924999 -19.159 -0.29300001 8.0365112e-39
16.115 -10.19 -0.061999999 8.4005741e-39
30.135 -18.895 -0.29300001 1.0692172e-38
30.194 -18.801001 -0.29300001 1.0693217e-38
30.222 -18.687 -0.29300001 8.5698594e-39
30.332001 -18.688 -0.294 8.570951e-39
30.368 -18.58 -0.29300001 9.0319025e-39
30.472 -18.511999 -0.294 8.9397013e-39
30.479 -18.385 -0.29300001 6.824615e-39
30.584999 -18.318001 -0.294 7.4707019e-39
30.608999 -18.202999 -0.294 7.929522e-39
30.684 -18.117001 -0.294 6.8249751e-39
30.716999 -18.070999 -0.294 7.4710606e-39
30.777 -17.976999 -0.294 7.9313157e-39
30.872999 -17.903 -0.29499999 8.7589057e-39
30.941999 -17.813 -0.29499999 7.19268e-39
30.927999 -17.676001 -0.294 7.9313171e-39
31.046 -17.614 -0.29499999 9.4961275e-39
31.143 -17.540001 -0.29499999 1.0051452e-38
31.136999 -17.473 -0.29499999 1.0144007e-38
31.188999 -17.372999 -0.29499999 8.7653937e-39
31.280001 -17.295 -0.29499999 1.2073977e-38
31.332001 -17.195999 -0.29499999 1.2253339e-38
31.407 -17.108999 -0.296 1.1978553e-38
31.478001 -17.018999 -0.296 1.2529553e-38
31.558001 -16.934999 -0.296 1.1333894e-38
31.577999 -16.881001 -0.296 1.0229716e-38
31.629 -16.781 -0.296 1.0872219e-38
31.687 -16.684 -0.296 1.2163648e-38
31.794001 -16.613001 -0.29699999 9.684085e-39
31.820999 -16.500999 -0.29699999 8.3018975e-39
31.903 -16.416 -0.29699999 1.087687e-38
31.945 -16.374001 -0.29800001 8.2057418e-39
32.036999 -16.294001 -0.29800001 1.0419503e-38
32.083 -16.191 -0.29800001 1.0601737e-38
32.094002 -16.07 -0.29800001 1.1980698e-38
32.137001 -15.966 -0.29699999 1.2345529e-38
32.209 -15.876 -0.29800001 1.096907e-38
32.242001 -15.766 -0.29800001 1.3543351e-38
32.279999 -15.722 -0.29800001 1.1524053e-38
32.334 -15.623 -0.29800001 1.0968351e-38
32.426998 -15.542 -0.29899999 1.0971958e-38
32.514999 -15.459 -0.29899999 1.0508821e-38
32.535999 -15.344 -0.29899999 1.0047122e-38
32.715 -15.303 -0.301 8.8478812e-39
32.800999 -15.217 -0.301 9.1294847e-39
32.884998 -15.193 -0.30199999 9.7701752e-39
32.813999 -15.036 -0.30000001 1.0777853e-38
32.874001 -14.939 -0.301 8.6642102e-39
32.798 -14.78 -0.29899999 8.7574666e-39
32.817001 -14.665 -0.29800001 8.8525279e-39
32.897999 -14.577 -0.29899999 9.213763e-39
32.985001 -14.554 -0.30000001 8.5719935e-39
33.134998 -14.496 -0.301 7.9284304e-39
33.151001 -14.379 -0.301 9.1248072e-39
33.194 -14.274 -0.301 9.5868601e-39
33.165001 -14.138 -0.30000001 1.023079e-38
33.276001 -14.062 -0.301 9.6783369e-39
33.347 -13.969 -0.301 8.5730683e-39
33.377998 -13.92 -0.301 8.6638234e-39
33.264999 -13.75 -0.29899999 9.0333318e-39
33.271 -13.631 -0.29800001 9.3081054e-39
33.403999 -13.563 -0.30000001 8.2032082e-39
33.499001 -13.479 -0.301 5.9959277e-39
33.466999 -13.344 -0.29899999 7.4681711e-39
33.571999 -13.264 -0.30000001 6.7324039e-39
33.685001 -13.247 -0.30199999 6.7334815e-39
33.771999 -13.159 -0.303 7.468876e-39
33.837002 -13.062 -0.303 6.1842566e-39
33.936001 -12.978 -0.30399999 5.3537897e-39
34.140999 -12.933 -0.30599999 5.9029978e-39
34.228001 -12.844 -0.30700001 5.7214862e-39
34.237 -12.724 -0.30599999 7.0165284e-39
34.367001 -12.711 -0.308 7.2077482e-39
34.394001 -12.598 -0.308 4.7995453e-39
34.546001 -12.531 -0.31 6.5487358e-39
34.599998 -12.428 -0.31 5.4488566e-39
34.66 -12.327 -0.31 5.7265169e-39
34.799999 -12.253 -0.31200001 8.7588903e-39
35.397999 -12.338 -0.31999999 5.9966396e-39
35.528999 -12.321 -0.322 5.8140462e-39
35.851002 -12.307 -0.32600001 5.1708292e-39
36.094002 -12.264 -0.329 5.3519904e-39
36.227001 -12.182 -0.33000001 5.632529e-39
36.567001 -12.168 -0.33500001 6.0913393e-39
36.715 -12.09 -0.336 5.9995206e-39
36.858002 -12.072 -0.338 5.7247302e-39
37.014999 -11.995 -0.34 6.0005856e-39
37.722 -12.093 -0.34999999 6.9167924e-39
37.908001 -12.021 -0.352 7.1033361e-39
38.459 -12.063 -0.359 7.1047752e-39
38.771999 -12.027 -0.36300001 7.6586496e-39
39.002998 -11.964 -0.366 7.1036878e-39
39.363998 -12.007 -0.37099999 8.1135321e-39
39.576 -11.936 -0.37400001 8.300803e-39
39.948002 -11.911 -0.37900001 1.530118e-38
26.636 -7.8600001 -0.184 7.3987564e-39
40.181999 -11.706 -0.38100001 8.5755823e-39
40.512001 -11.664 -0.38499999 8.1171166e-39
40.827999 -11.616 -0.389 8.9483235e-39
41.310001 -11.683 -0.396 7.8423528e-39
41.577 -11.618 -0.40000001 7.6601e-39
42.139999 -11.632 -0.40700001 7.1083611e-39
42.775002 -11.662 -0.41600001 7.1930051e-39
43.165001 -11.623 -0.421 8.4837356e-39
44.084 -11.721 -0.43399999 6.6452418e-39
44.483002 -11.678 -0.43900001 5.6314598e-39
44.494999 -11.606 -0.43900001 5.5385495e-39
45.234001 -11.647 -0.449 6.3578719e-39
46.134998 -11.724 -0.46200001 7.1969708e-39
46.651001 -11.699 -0.46900001 9.1330594e-39
46.796001 -11.579 -0.47 7.6601042e-39
48.132 -11.749 -0.48899999 8.5809647e-39
48.473 -11.751 -0.49399999 7.6604545e-39
48.890999 -11.69 -0.49900001 7.8405354e-39
49.603001 -11.695 -0.509 7.4735591e-39
50.719002 -11.789 -0.52399999 7.3842446e-39
51.209999 -11.734 -0.53100002 8.5770312e-39
52.521 -11.86 -0.54900002 7.1966051e-39
52.918999 -11.775 -0.55400002 7.4710508e-39
53.271 -11.765 -0.55900002 7.8412598e-39
53.699001 -11.683 -0.565 8.0270818e-39
54.808998 -11.744 -0.57999998 8.3015205e-39
56.268002 -11.871 -0.60100001 6.9207455e-39
56.865002 -11.81 -0.60900003 7.013667e-39
35.710999 -7.1339998 -0.30500001 2.3505424e-38
35.727001 -7.0209999 -0.30500001 8.0242049e-39
60.162998 -11.609 -0.653 1.3634808e-38
61.297001 -11.627 -0.66900003 8.6757064e-39
61.841 -11.529 -0.676 7.9352505e-39
62.653999 -11.477 -0.68699998 8.7624945e-39
63.105 -11.252 -0.69300002 1.0052137e-38
62.846001 -11.003 -0.68900001 1.0513843e-38
62.099998 -10.671 -0.67799997 1.0606404e-38
60.991001 -10.284 -0.66100001 1.0055746e-38
61.119999 -10.109 -0.66299999 9.9624782e-39
60.518002 -9.8140001 -0.65399998 1.2077566e-38
59.962002 -9.6280003 -0.64600003 9.8720804e-39
59.620998 -9.3809996 -0.63999999 9.872072e-39
58.854 -9.0710001 -0.62900001 9.6866032e-39
59.209999 -8.9359999 -0.634 8.5817073e-39
60.778999 -8.9759998 -0.65600002 1.317134e-38
61.104 -8.8280001 -0.66000003 1.9279712e-38
60.549 -5.1820002 -0.64600003 1.9547615e-38
60.441002 -4.9809999 -0.64499998 2.0474247e-38
60.452999 -4.8870001 -0.64499998 2.1383981e-38
60.493999 -4.6989999 -0.64499998 2.1383593e-38
60.436001 -4.1220002 -0.64399999 2.3502984e-38
60.965 -0.80000001 -0.64899999 1.8814743e-38
60.271 -0.412 -0.639 1.9078925e-38
60.408001 -0.223 -0.64099997 2.0012962e-38
51.780998 0.015 -0.88099998 1.5581056e-38
51.798 0.178 -0.88099998 1.5583215e-38
51.738998 0.34 -0.88 1.6225706e-38
51.765999 0.50300002 -0.88 1.6502288e-38
51.778 0.66500002 -0.88099998 1.6684874e-38
51.751999 0.82800001 -0.88 1.6407931e-38
51.889 0.99299997 -0.88300002 1.6590879e-38
52.299 1.4119999 -0.89200002 2.3036614e-38
52.445 1.58 -0.89499998 1.8529853e-38
52.591 1.75 -0.898 1.7884502e-38
52.904999 1.927 -0.90499997 1.8075388e-38
52.970001 2.0120001 -0.90600002 1.8075761e-38
53.140999 2.1860001 -0.91000003 1.9463743e-38
53.400002 2.365 -0.91600001 2.1118217e-38
53.630001 2.5439999 -0.921 2.1853977e-38
52.271999 2.6440001 -0.89200002 1.8680381e-38
53.882 2.895 -0.926 2.1658365e-38
54.025002 3.073 -0.93000001 1.8623863e-38
54.223 3.1689999 -0.93400002 2.0646037e-38
54.376999 3.3499999 -0.93699998 1.8895441e-38
54.588001 3.5350001 -0.94199997 1.651132e-38
54.784 3.72 -0.94599998 1.3657276e-38
54.853001 3.898 -0.94800001 2.0649238e-38
54.799 4.0669999 -0.94700003 2.1740811e-38
54.547001 4.2210002 -0.94199997 1.8326717e-38
54.210999 4.2810001 -0.935 1.3456554e-38
53.970001 4.4330001 -0.93000001 1.1431867e-38
59.516998 5.0739999 -1.0470001 1.0510265e-38
53.782001 4.7579999 -0.92699999 1.3636952e-38
48.852001 4.4790001 -0.824 2.2766543e-38
48.835999 4.632 -0.824 8.3073205e-39
58.134998 5.6929998 -1.02 9.1323686e-39
57.932999 5.7649999 -1.016 8.0256791e-39
57.591999 5.914 -1.0089999 9.492868e-39
57.299 6.066 -1.003 1.0785752e-38
57.039001 6.2199998 -0.99800003 9.8663085e-39
56.710999 6.3649998 -0.99199998 9.4986064e-39
56.362999 6.5050001 -0.98500001 1.1616579e-38
56.036999 6.5570002 -0.97799999 1.0970857e-38
55.859001 6.7140002 -0.97500002 8.2082487e-39
55.584 6.8590002 -0.96899998 8.2096808e-39
55.205002 6.9879999 -0.96200001 6.3679416e-39
34.314999 4.573 -0.52100003 1.0969811e-38
34.224998 4.6700001 -0.51899999 6.7353243e-39
34.280998 4.7329998 -0.52100003 6.8275311e-39
34.242001 4.8369999 -0.51999998 1.0864654e-38
34.326 4.9590001 -0.52200001 6.8260822e-39
34.352001 5.073 -0.523 6.4684764e-39
53.252998 8.0209999 -0.92400002 7.5635841e-39
52.974998 8.1490002 -0.91900003 7.1969638e-39
52.831001 8.2969999 -0.91600001 8.207513e-39
52.577999 8.342 -0.91100001 8.3886687e-39
52.459 8.4919996 -0.90899998 7.4731878e-39
52.229 8.6239996 -0.90499997 8.9436473e-39
52.056 8.7629995 -0.90200001 1.0324788e-38
51.638 8.8599997 -0.89300001 7.4724661e-39
45.334999 8.0019999 -0.75999999 2.3509168e-38
51.140999 9.1890001 -0.884 6.9193217e-39
50.817001 9.2959995 -0.87800002 8.1153342e-39
50.521999 9.4060001 -0.87199998 6.6459677e-39
50.252998 9.5200005 -0.86699998 8.2057306e-39
50.146 9.6630001 -0.866 8.2964941e-39
50.001999 9.7980003 -0.86299998 8.1200005e-39
30.433001 6.0229998 -0.44499999 1.1451798e-38
49.570999 9.9569998 -0.85500002 1.0049647e-38
49.437 10.091 -0.85299999 7.7472803e-39
49.241001 10.213 -0.84899998 8.3944364e-39
49.016998 10.327 -0.84500003 8.6721079e-39
48.812 10.444 -0.84200001 9.2209531e-39
48.667999 10.573 -0.83899999 1.0873294e-38
48.504002 10.618 -0.83600003 9.2180902e-39
48.305 10.733 -0.83200002 1.1333176e-38
48.125 10.852 -0.829 9.4028388e-39
47.936001 10.968 -0.82599998 1.0048198e-38
47.696999 11.071 -0.82200003 8.7642993e-39
47.480999 11.179 -0.81800002 8.3940763e-39
47.345001 11.304 -0.81599998 9.5865084e-39
47.195999 11.347 -0.81300002 1.0229004e-38
47.046001 11.467 -0.81 9.3077747e-39
46.928001 11.595 -0.80800003 1.19832e-38
46.701 11.695 -0.80400002 9.7683745e-39
46.540001 11.81 -0.80199999 1.004855e-38
46.424999 11.936 -0.80000001 1.1615163e-38
46.245998 12.045 -0.79699999 6.0006137e-39
46.088001 12.081 -0.79400003 7.7472719e-39
45.904999 12.188 -0.79100001 7.3831712e-39
45.673 12.28 -0.787 8.2078872e-39
45.473999 12.38 -0.78299999 7.1062283e-39
45.271 12.478 -0.77999997 9.1284281e-39
45.118 12.588 -0.77700001 1.4644661e-38
44.905998 12.605 -0.773 1.3079859e-38
44.791 12.725 -0.77100003 1.0140402e-38
44.618 12.828 -0.76800001 7.4746437e-39
44.443001 12.929 -0.76499999 8.7592631e-39
44.264 13.028 -0.76200002 9.7741311e-39
44.084999 13.126 -0.759 1.08704e-38
43.860001 13.209 -0.755 8.0209834e-39
43.723999 13.243 -0.75300002 8.8489378e-39
43.556 13.342 -0.75 9.0347555e-39
30.606001 9.4879999 -0.46700001 6.6380882e-39
43.054001 13.484 -0.741 1.235556e-38
37.898998 12.004 -0.62900001 2.1831196e-38
42.731998 13.679 -0.736 1.0596703e-38
42.603001 13.786 -0.73400003 8.9458165e-39
42.471001 13.817 -0.73100001 9.2234838e-39
42.367001 13.93 -0.73000002 1.2067846e-38
42.196999 14.022 -0.727 8.2111256e-39
42.044998 14.118 -0.72500002 9.8652407e-39
41.917 14.222 -0.72299999 9.5879307e-39
41.785 14.324 -0.72100002 8.1171349e-39
41.659 14.427 -0.71899998 9.2191748e-39
41.561001 14.466 -0.71799999 9.2220349e-39
41.394001 14.554 -0.71499997 8.2089648e-39
41.251999 14.65 -0.713 8.6667241e-39
41.129002 14.752 -0.71100003 9.4957491e-39
41.041 14.866 -0.70999998 1.0964049e-38
40.915001 14.966 -0.708 7.0154718e-39
21.812 8.0299997 -0.28200001 9.5069048e-39
21.618999 8.0369997 -0.27900001 1.3191586e-38
21.365 8.0190001 -0.273 1.3815033e-38
21.17 8.0220003 -0.27000001 1.3201661e-38
40.390999 15.425 -0.70099998 9.7705367e-39
40.255001 15.519 -0.69999999 1.0139679e-38
40.140999 15.62 -0.69800001 1.0782512e-38
40.068001 15.664 -0.69700003 1.1148441e-38
39.959999 15.767 -0.69599998 1.068964e-38
39.827 15.859 -0.69400001 9.0315382e-39
39.716 15.96 -0.69199997 1.0045686e-38
39.604 16.059 -0.69099998 1.0601744e-38
39.463001 16.146999 -0.68900001 8.6670562e-39
39.403 16.267 -0.68900001 1.1336797e-38
39.334999 16.311001 -0.68800002 1.1154922e-38
39.219002 16.408001 -0.68599999 9.583284e-39
39.136002 16.518 -0.68599999 9.2213244e-39
39.067001 16.632999 -0.685 6.7399766e-39
38.959 16.732 -0.68400002 9.9535015e-39
38.888 16.847 -0.68400002 1.1791648e-38
38.845001 16.900999 -0.68300003 7.5629157e-39
38.761002 17.009001 -0.68199998 9.233639e-39
38.733002 17.142 -0.68300003 1.1541781e-38
18.299 8.1829996 -0.215 1.0321219e-38
17.073999 8.2889996 -0.193 2.6798362e-39
17.041 8.3389997 -0.193 2.1277428e-39
17.025 8.3979998 -0.193 1.5727529e-39
12.479 7.3270001 -0.097999997 1.7535288e-39
12.445 7.3600001 -0.097999997 2.4939637e-39
12.491 7.4400001 -0.1 2.1295182e-39
12.961 7.8299999 -0.112 3.2362652e-39
12.841 7.8119998 -0.11 4.6155534e-39
12.709 7.7600002 -0.107 4.7945483e-39
12.666 7.7880001 -0.107 2.1252107e-39
12.646 7.8309999 -0.107 2.2163245e-39
12.067 7.7119999 -0.094999999 1.7549806e-39
12.049 7.7540002 -0.094999999 1.7564225e-39
12.017 7.7859998 -0.094999999 2.492903e-39
11.992 7.8239999 -0.094999999 1.9404579e-39
11.55 8.1730003 -0.092 1.5727487e-39
11.847 8.5509996 -0.101 2.491461e-39
11.982 8.7329998 -0.106 4.1632353e-39
12.141 8.908 -0.111 6.4667206e-39
12.477 9.2740002 -0.121 4.8057405e-39
12.664 9.4750004 -0.127 6.2808748e-39
12.818 9.6529999 -0.131 6.6453427e-39
52.209999 39.472 -1.1670001 3.4159579e-39
52.132 39.542 -1.1670001 3.1433339e-39
52.109001 39.783001 -1.17 2.5894328e-39
17.231001 13.567 -0.255 2.0333219e-39
24.283001 -20.913 -0.46700001 6.6301456e-39
24.339001 -20.829 -0.46700001 6.0791298e-39
24.398001 -20.813 -0.46700001 4.4246546e-39
24.514999 -20.780001 -0.46900001 4.1455677e-39
24.569 -20.694 -0.46799999 3.3197657e-39
